-2.506741 -10.500637 -31.151743
-2.534782 -10.795268 -31.041400
-2.509686 -10.114369 -31.244393
-2.211117 -10.100771 -31.443531
-2.204609 -10.017753 -31.391881
-2.182337 -9.733673 -31.475075
-2.474181 -9.822121 -31.328783
-2.126055 -10.148618 -30.843696
-3.347767 -10.052313 -31.249458
-3.018824 -10.135665 -31.150762
-2.965830 -9.778532 -31.343292
-3.294365 -9.772020 -31.346932
-3.302970 -10.158307 -30.786810
-2.760267 -10.141700 -30.996081
-3.204634 -9.795968 -30.844165
-2.171311 -10.435657 -30.737346
-4.136615 -10.445978 -31.063277
-4.468863 -10.427633 -31.031584
-3.879064 -10.484556 -31.041505
-3.586370 -9.802728 -31.198993
-4.011524 -9.932288 -31.183460
-3.788363 -10.116327 -31.100198
-3.716274 -9.907220 -30.891588
-4.388866 -10.141729 -31.148586
-4.286518 -9.775946 -31.203285
-4.655694 -9.738898 -31.298192
-4.366282 -10.061017 -31.097816
-4.061593 -10.137901 -31.023232
-5.100541 -9.812577 -31.148558
-5.200699 -10.092057 -31.031556
-5.306374 -9.748053 -31.097570
-5.982192 -9.757954 -31.080507
-5.855777 -19.199872 -24.999861
-4.221709 -18.765043 -25.000095
-4.186064 -18.383514 -25.086927
-4.451567 -17.662102 -25.756609
-4.533857 -18.633490 -24.999964
-4.210320 -18.569955 -24.999918
-3.849380 -17.608626 -24.999996
-4.320034 -17.812720 -24.999990
-5.381983 -18.599707 -25.756704
-2.546350 -19.884843 -25.756609
-0.959340 -19.014838 -25.756771
-1.280456 -19.024218 -25.757040
-1.176649 -19.729336 -25.000315
-1.131448 -18.014992 -25.757029
-1.237819 -17.957863 -25.000048
-1.879799 -17.915713 -25.000010
-3.283650 -17.940667 -25.757040
-2.988312 -17.980362 -25.756771
-2.665366 -17.811563 -24.999985
-3.145121 -17.562414 -25.000315
-2.500543 -17.044123 -25.757010
-1.585055 -17.156273 -25.756975
-6.030770 -8.989058 -31.498962
-6.268902 -8.423771 -31.508488
-6.582430 -8.606940 -31.498968
-6.307600 -8.494958 -31.563596
-6.264868 -7.197571 -32.255237
-6.603338 -7.168438 -32.225889
-6.649917 -7.803001 -31.934799
-7.043697 -7.835466 -31.947129
-7.240565 -8.133669 -31.753413
-6.985204 -8.330188 -31.498945
-7.253830 -8.121962 -31.651586
-6.874504 -8.156130 -31.650352
-6.927334 -7.916610 -31.664734
-7.159885 -7.994488 -31.702032
-6.183755 -8.080099 -31.879657
-6.041185 -7.826925 -31.954171
-6.158450 -7.868874 -31.918159
-6.316985 -8.316687 -31.644944
-6.130647 -8.169443 -31.749694
-6.143998 -8.009499 -31.824548
-6.457774 -7.500885 -32.103184
-6.008945 -7.769674 -32.045511
-6.301321 -7.254888 -32.166834
-6.479037 -7.228848 -32.104940
-5.985804 -7.623577 -31.576739
-6.028419 -7.314028 -31.554723
-6.962879 -7.713047 -31.989669
-6.646654 -7.771637 -31.934828
-6.683912 -7.290486 -32.194421
-7.007600 -7.760410 -31.795662
-6.801539 -7.723620 -31.651593
-6.721632 -7.304377 -31.553147
-7.271433 -7.237805 -31.847032
-8.155400 -7.846064 -31.592036
-7.308923 -8.237213 -31.548592
-7.282869 -7.975968 -31.600827
-7.623207 -7.167888 -32.044616
-7.677300 -7.533848 -31.673683
-7.563634 -7.228584 -31.807634
-7.793978 -7.385502 -31.802147
-8.295972 -7.492075 -31.648296
-7.935748 -7.566160 -31.804900
-8.103011 -7.779304 -31.543041
-8.007859 -7.160678 -31.802243
-8.240635 -7.428425 -31.598410
-6.043484 -6.320406 -32.962050
-6.633592 -5.906817 -32.949766
-6.678336 -5.631410 -32.961984
-6.751315 -5.277069 -32.939137
-6.122208 -5.255158 -33.348199
-6.357989 -5.555615 -33.124812
-6.628311 -5.573869 -33.040469
-6.268062 -5.441021 -33.129313
-6.481729 -5.405265 -33.124907
-5.983182 -5.077997 -33.415647
-6.479389 -4.976205 -33.178005
-6.081800 -5.203667 -33.275275
-6.220294 -4.689536 -33.249562
-7.002600 -4.655215 -33.097122
-7.829054 -4.961212 -32.984581
-7.442474 -4.611852 -33.109347
-7.718829 -4.861600 -33.002076
-7.589121 -6.679029 -32.218157
-7.309143 -6.767675 -32.252728
-7.447416 -6.516035 -32.344410
-7.304829 -6.352025 -32.464461
-7.381083 -5.973859 -32.377807
-7.965768 -7.112263 -31.902119
-7.940607 -6.592928 -31.963737
-8.192761 -6.871916 -31.776526
-7.729836 -6.840885 -32.085705
-7.351051 -6.821078 -32.160423
-7.573186 -7.104146 -31.989507
-7.287062 -6.869963 -31.933864
-7.537128 -6.619225 -32.160518
-7.633415 -6.729978 -32.124304
-7.887881 -6.534590 -31.905267
-7.911858 -7.050254 -31.848728
-7.635682 -6.255552 -32.073154
-7.769122 -6.323809 -31.651591
-7.418711 -6.261482 -31.576713
-8.351348 -5.941566 -31.905220
-6.634467 -7.043964 -32.226158
-6.764450 -6.586434 -32.249844
-7.132472 -6.542542 -32.464365
-6.206895 -6.567930 -32.640215
-6.407614 -6.871967 -32.515851
-6.485411 -6.993653 -32.255256
-6.392133 -6.866022 -32.282028
-6.511799 -6.867643 -32.342951
-6.273231 -6.913107 -32.249733
-6.285198 -6.699670 -32.538259
-5.995676 -6.774308 -32.558066
-6.203055 -6.579056 -32.558085
-6.191211 -6.787276 -32.272681
-6.326969 -6.749811 -32.538002
-6.004563 -6.261451 -32.894142
-6.223527 -6.453283 -32.640484
-6.069450 -6.391732 -32.656464
-6.028367 -6.331347 -32.736556
-6.245579 -5.919789 -32.718822
-6.589542 -5.850684 -32.882604
-6.624901 -6.407142 -32.359032
-6.052666 -6.000145 -32.394637
-6.596660 -5.974744 -32.531290
-6.997579 -6.370647 -32.578213
-6.635583 -5.909354 -32.802531
-6.921119 -5.910668 -32.705023
-6.968812 -5.965527 -32.621859
-7.088602 -6.486638 -32.552928
-6.967188 -6.455194 -32.283680
-6.644233 -6.036430 -32.445864
-7.111965 -6.130186 -32.515784
-6.995943 -6.883855 -32.105050
-6.673080 -7.099466 -32.136220
-7.058518 -6.573618 -32.099298
-6.892657 -7.049729 -31.692004
-6.632991 -6.799751 -31.798776
-6.512245 -7.042566 -32.166864
-6.219020 -7.101580 -32.195154
-6.502393 -7.007784 -31.730312
-6.036861 -6.941327 -31.563585
-6.074655 -6.707319 -31.592467
-6.432978 -6.580243 -31.641773
-6.244363 -6.353073 -32.057442
-6.081145 -6.007331 -31.979035
-6.533087 -5.997577 -31.945464
-6.460121 -6.252069 -31.754376
-6.264024 -6.455654 -31.804219
-6.181387 -6.195097 -31.804982
-6.303361 -6.113772 -31.691649
-6.631048 -5.998850 -31.804097
-6.656253 -6.077598 -31.898110
-7.156184 -6.012892 -31.890508
-7.006649 -6.305253 -31.586481
-6.651225 -6.382266 -31.749640
-6.955116 -6.271772 -31.691640
-6.702873 -6.417452 -31.642700
-6.709624 -6.112274 -31.796690
-7.144046 -5.996021 -31.620719
-7.072122 -5.632017 -32.595986
-6.631987 -5.578098 -32.894075
-6.308894 -5.601609 -32.875759
-5.994262 -5.647498 -32.354638
-6.097846 -5.372625 -32.515145
-6.296850 -5.405405 -32.253779
-6.079489 -5.276274 -32.333461
-6.505842 -5.397078 -32.327463
-6.481146 -5.048889 -32.718710
-6.230519 -4.919432 -32.581961
-6.282637 -4.782962 -32.802004
-6.016345 -4.650015 -32.850277
-6.228871 -4.758062 -32.615676
-6.099190 -4.847557 -32.615977
-6.096268 -4.689186 -32.647304
-6.164378 -4.724563 -32.708226
-6.412952 -4.848022 -32.622428
-6.404501 -4.585862 -32.676055
-6.539750 -4.651510 -32.641221
-6.424299 -5.025487 -32.449088
-6.130507 -5.086201 -32.402121
-6.292497 -4.791110 -32.522366
-6.640726 -4.646425 -32.641591
-7.071090 -5.176599 -32.289700
-7.253973 -4.925260 -32.376073
-6.805095 -5.043800 -32.369556
-6.842939 -4.738369 -32.507062
-7.268788 -4.824285 -32.406306
-6.979823 -4.800608 -32.465825
-6.994003 -4.703527 -32.481541
-7.166256 -4.649198 -32.421699
-7.035142 -4.847949 -32.265741
-7.092513 -4.617063 -32.365741
-7.155793 -4.644638 -32.265390
-7.241211 -5.801249 -31.981483
-6.940789 -5.808933 -32.097790
-6.663836 -5.709880 -32.121495
-6.633546 -5.542620 -32.062688
-6.828151 -5.730963 -31.908321
-6.721997 -5.659602 -31.856845
-6.816646 -5.653085 -31.908691
-6.807370 -5.235140 -32.164449
-6.701588 -5.451944 -31.883849
-6.919529 -5.271453 -31.960201
-7.194437 -5.259585 -31.908369
-7.028738 -5.843004 -31.641327
-6.788538 -5.803820 -31.651255
-7.251403 -5.289174 -31.803647
-6.536060 -5.633742 -32.162625
-6.595428 -5.583926 -31.907489
-6.023561 -5.606357 -32.198145
-6.227809 -5.364125 -32.197821
-6.577881 -5.372718 -32.072967
-6.113868 -5.523542 -31.585976
-7.131803 -5.206910 -32.191049
-7.061153 -4.904593 -32.164414
-7.195257 -4.969685 -32.116024
-7.254976 -4.998672 -32.012676
-6.872883 -5.092568 -32.109895
-6.927115 -4.839532 -32.210377
-7.178639 -4.716721 -32.210452
-8.159342 -5.259701 -32.614980
-8.484603 -5.553646 -32.369992
-8.432601 -5.506650 -32.463227
-7.747869 -5.366006 -32.467135
-7.775078 -4.912433 -32.918936
-7.463908 -5.095182 -32.748361
-7.914766 -4.676240 -32.730231
-7.316893 -4.953868 -32.273289
-7.333350 -4.852658 -32.308268
-7.393994 -4.598119 -32.218501
-7.469115 -4.629987 -32.272753
-7.607388 -4.688643 -32.222639
-7.878467 -4.648229 -32.244349
-7.940602 -5.062021 -32.814385
-8.349573 -5.032698 -32.414225
-7.954519 -4.677806 -32.298602
-8.134708 -5.734949 -32.134029
-7.982428 -5.256478 -31.837818
-8.103555 -5.295937 -31.576690
-8.527898 -5.422553 -31.708377
-8.259376 -5.259613 -31.639072
-7.323939 -5.302835 -32.045022
-7.588776 -5.435055 -31.944416
-7.721194 -5.501166 -31.890464
-7.368541 -5.542266 -31.690497
-7.437695 -5.385936 -31.641201
-7.702652 -5.491908 -31.734303
-7.713002 -5.220993 -31.739458
-7.789345 -5.258049 -31.788453
-7.670732 -5.000925 -32.118281
-7.378824 -4.982028 -32.169785
-7.561871 -5.092008 -31.905710
-7.388628 -5.063545 -31.960285
-7.513225 -4.938207 -31.960070
-7.508017 -4.736591 -32.121516
-7.883657 -4.749234 -32.043605
-7.628147 -4.850473 -32.011840
-7.753470 -4.679562 -32.011859
-7.782481 -4.644328 -32.011815
-7.770088 -5.159930 -31.848549
-7.579968 -5.156420 -31.798293
-7.927426 -4.824406 -31.848013
-8.057669 -5.056103 -32.012338
-8.080315 -4.726726 -32.090882
-8.280120 -4.804429 -31.931137
-8.123996 -5.200118 -31.697908
-8.250060 -4.948727 -31.838958
-8.178828 -4.634395 -31.798755
-8.433502 -4.789959 -31.729967
-9.060112 -6.617541 -31.518059
-9.182749 -6.184574 -31.856874
-8.865589 -5.897950 -32.155157
-9.229975 -6.227253 -31.753031
-8.731602 -6.304228 -31.673578
-9.292157 -6.283448 -31.803802
-8.594668 -5.653113 -32.333663
-9.536960 -4.574066 -32.253535
-9.538466 -5.287650 -31.535094
-8.695882 -5.744582 -32.141892
-8.705568 -5.317466 -32.002605
-9.054971 -5.596959 -31.720549
-9.132353 -4.977494 -31.943907
-8.938674 -4.769461 -32.195385
-9.096936 -4.896935 -31.508488
-8.781940 -4.705275 -31.692055
-9.248176 -4.989746 -32.022592
-9.593895 -4.610987 -32.154884
-9.244779 -5.063356 -31.740552
-9.548153 -5.203253 -31.674011
-10.022434 -4.888888 -31.908251
-10.165301 -4.580460 -31.908172
-10.252424 -5.038032 -31.641083
-10.076293 -4.923814 -31.803529
-9.952566 -4.843580 -31.856601
-10.066846 -4.638903 -31.572316
-10.290245 -4.659798 -31.854221
-8.836265 -7.583903 -31.178253
-7.293405 -8.478223 -31.358173
-7.446559 -8.713187 -31.080387
-6.657360 -9.138364 -31.141066
-6.094969 -9.118798 -31.445469
-6.147617 -9.515940 -30.982521
-6.483281 -8.818134 -31.360724
-5.993365 -8.913465 -31.449077
-6.540418 -8.533806 -31.449082
-6.654533 -8.732459 -31.445475
-7.062887 -8.452332 -31.445452
-6.646221 -8.667043 -30.933427
-7.060645 -8.420317 -31.445480
-7.084483 -8.157703 -31.412353
-7.247933 -8.408461 -31.306523
-7.205378 -7.958799 -31.199494
-6.754814 -8.306855 -30.941610
-6.375084 -8.238644 -31.203117
-6.181090 -7.932132 -31.398233
-6.504873 -7.965239 -31.252330
-6.330224 -7.726532 -31.343248
-6.232114 -7.181032 -31.307806
-6.329288 -7.228119 -31.474108
-6.435465 -7.371366 -31.040900
-6.939491 -7.599101 -31.359293
-7.062706 -7.293654 -31.398214
-8.004181 -8.179239 -31.300815
-7.945319 -7.881187 -31.358106
-7.388962 -8.358451 -31.494208
-7.618267 -7.956392 -30.982408
-7.853556 -7.762267 -31.413118
-7.351831 -7.623475 -31.308150
-8.534397 -7.249910 -31.358049
-8.184950 -6.735421 -31.308136
-8.487997 -7.035396 -30.982395
-8.208396 -7.009241 -30.991345
-7.839797 -6.660212 -31.252179
-7.323480 -6.102939 -31.460048
-7.326684 -6.170038 -31.202887
-7.675296 -6.075546 -31.040921
-6.988024 -6.643124 -31.097280
-6.539057 -5.909842 -31.310863
-6.766765 -6.472056 -31.358619
-7.148982 -6.049108 -31.358625
-6.959335 -6.291681 -30.993080
-8.476757 -5.397351 -31.398189
-7.315183 -5.844915 -31.358652
-7.598498 -5.011985 -31.081889
-7.995155 -5.274969 -30.692086
-9.374866 -6.917733 -31.178205
-9.462961 -5.923318 -31.465564
-9.684252 -6.100333 -31.190745
-9.710572 -5.419090 -31.371844
-9.774001 -5.308898 -30.982460
-8.873623 -5.691977 -31.412336
-8.755265 -5.424680 -31.359356
-9.210172 -5.777206 -30.982790
-8.829915 -5.638233 -31.099906
-9.184697 -5.391661 -31.046712
-8.828732 -5.156672 -31.352960
-9.409727 -5.087254 -31.308201
-9.489532 -4.612024 -31.412325
-9.745763 -4.766753 -31.306495
-9.957752 -5.474615 -31.300487
-10.322881 -4.800266 -31.461262
-10.562848 -4.951503 -31.178167
-5.850490 -9.167871 -31.498867
-4.797135 -9.347247 -31.546923
-4.701410 -9.075336 -31.635341
-5.247080 -9.194686 -31.499266
-5.192991 -9.060981 -31.547063
-5.084884 -8.793750 -31.635480
-4.924107 -8.798162 -31.576661
-4.787131 -8.457793 -31.738605
-5.030893 -8.660289 -31.676114
-5.706409 -8.964884 -31.598495
-5.966561 -8.859296 -31.550044
-5.609357 -8.759178 -31.592248
-5.439968 -8.542416 -31.692112
-5.774017 -8.470182 -31.688878
-5.902355 -8.729542 -31.598720
-4.536740 -9.517462 -31.546670
-4.280117 -9.109189 -31.582080
-4.467598 -9.134041 -31.581805
-3.543770 -9.412551 -31.528508
-3.544498 -9.126286 -31.554847
-3.820539 -9.148002 -31.513073
-3.409804 -8.809417 -31.902130
-3.665454 -8.511142 -31.889916
-3.932275 -8.509911 -31.858224
-3.752597 -8.868998 -31.738163
-4.031520 -8.864602 -31.706471
-4.010498 -8.789473 -31.647177
-3.492527 -8.915295 -31.678820
-3.386941 -8.486640 -31.759337
-4.330633 -8.844957 -31.897020
-4.263558 -8.477916 -32.047971
-4.489318 -8.472875 -31.872500
-4.367943 -8.966696 -31.713982
-4.632753 -8.880311 -31.769345
-4.653603 -8.939536 -31.675975
-4.177430 -8.775388 -31.750262
-4.345019 -8.739869 -31.840327
-4.093177 -8.501512 -31.814991
-4.629160 -8.497244 -31.798935
-4.137946 -8.073990 -32.265716
-4.052730 -7.799961 -32.301395
-4.257763 -7.815129 -32.284849
-4.020024 -7.831473 -32.445444
-3.968948 -7.530545 -32.614085
-3.568706 -7.210542 -32.589732
-3.862490 -7.188212 -32.701896
-3.968861 -7.530267 -32.470624
-3.650956 -7.504499 -32.431002
-4.044823 -7.210256 -32.697403
-4.424322 -7.160895 -32.614369
-4.428115 -7.565677 -32.260250
-4.140337 -7.481570 -32.537175
-4.234808 -7.749921 -32.365639
-4.285928 -7.212358 -32.508344
-4.451236 -7.227423 -32.537315
-4.529827 -8.220066 -32.009327
-4.165024 -8.304592 -32.159769
-4.115542 -8.001944 -32.203191
-4.539665 -7.842865 -32.078001
-4.562048 -8.386092 -31.576976
-4.144771 -7.944428 -31.672811
-4.510847 -7.901869 -31.702672
-3.852832 -8.225986 -32.057629
-3.595698 -8.224683 -32.089322
-3.507925 -7.864241 -32.210606
-3.909335 -7.903907 -32.140941
-3.473369 -8.230853 -31.599038
-3.529218 -7.830308 -31.701702
-3.811984 -7.274965 -32.126005
-3.996253 -7.613215 -31.801003
-3.403350 -7.639544 -31.697202
-4.641893 -7.526507 -31.951886
-4.276964 -7.557092 -31.907909
-4.116498 -7.296207 -32.096604
-4.448502 -7.305742 -32.039369
-4.365658 -7.724000 -31.697503
-4.629656 -7.512538 -31.799486
-4.450383 -7.768813 -31.648916
-4.224545 -7.493095 -31.855386
-4.508921 -7.236370 -31.802212
-4.691819 -7.822125 -32.244702
-5.162342 -7.811709 -32.220867
-4.947562 -7.233996 -32.590711
-5.151764 -7.529015 -32.242265
-4.860431 -7.243229 -32.477019
-5.089688 -7.392987 -32.264436
-5.871449 -7.525512 -32.255202
-5.336858 -7.586723 -32.221092
-5.630517 -7.249422 -32.272744
-5.913828 -7.443035 -32.255260
-5.768961 -7.190849 -32.306443
-5.490392 -8.396619 -31.918058
-5.367650 -8.133732 -31.987829
-5.617598 -8.154074 -31.862195
-5.339706 -8.073883 -32.077642
-5.952753 -7.842196 -31.919057
-5.681814 -8.283848 -31.824600
-5.459922 -8.204294 -31.786614
-5.309157 -8.122890 -31.930060
-4.929209 -8.408935 -31.897413
-4.821046 -8.141564 -31.960791
-4.796387 -8.080610 -32.048255
-4.688476 -7.813863 -32.099239
-5.137510 -7.864376 -32.009283
-5.257460 -8.133275 -31.798891
-4.899265 -8.334915 -31.840611
-4.999500 -7.864447 -31.738685
-5.129594 -7.742297 -32.159944
-4.737367 -7.389701 -31.908309
-5.022431 -7.698138 -31.593152
-4.867995 -7.599305 -31.796331
-4.964832 -7.635817 -31.544157
-4.742252 -7.503633 -31.598380
-4.790048 -7.348673 -31.691687
-5.071295 -7.300598 -31.651770
-5.774244 -7.513817 -32.071751
-5.366830 -7.647292 -32.135031
-5.948519 -7.564668 -31.671538
-5.621150 -7.157439 -31.543533
-5.789589 -7.313556 -31.738684
-0.972667 -7.162563 -33.023658
-1.424089 -7.170859 -32.959819
-3.229721 -9.432724 -31.528676
-2.870273 -9.134550 -31.738851
-3.164682 -9.091352 -31.694290
-3.218261 -9.372570 -31.621839
-2.161598 -9.469139 -31.694080
-2.381661 -9.186372 -31.678715
-2.106990 -8.772591 -31.977160
-2.128178 -9.042859 -31.785149
-2.394083 -8.877802 -31.809920
-2.487236 -8.563548 -31.585894
-2.919424 -8.782812 -31.870290
-2.871240 -8.513993 -32.059437
-3.333562 -8.466167 -32.038125
-3.072699 -8.608554 -31.870351
-3.060574 -8.544914 -31.954665
-3.111278 -8.811047 -31.757338
-2.826832 -8.841793 -31.796497
-3.084657 -8.671319 -31.785359
-3.356829 -8.583821 -31.528408
-0.871702 -8.451559 -32.328142
-1.404890 -8.456269 -32.250734
-1.981966 -9.491607 -31.554705
-1.638107 -9.627272 -31.613129
-1.489967 -9.162187 -31.734975
-1.963646 -9.127256 -31.707873
-0.817346 -9.145515 -31.954610
-1.106657 -9.094586 -31.884064
-1.395521 -9.083526 -31.954211
-1.373649 -9.442014 -31.738699
-0.796190 -9.415607 -31.757283
-1.090173 -9.462171 -31.738609
-0.801157 -9.352195 -31.843773
-1.079077 -9.161104 -31.796226
-1.377849 -9.146081 -31.796344
-1.399629 -8.808478 -32.140474
-1.119871 -8.799913 -31.929189
-1.399768 -8.799136 -31.997317
-0.844718 -8.796057 -32.078348
-0.861028 -8.587837 -32.173404
-1.403875 -8.524202 -32.173005
-1.382029 -8.851633 -31.844571
-0.984723 -8.560032 -31.781181
-1.632646 -8.770796 -31.977363
-1.472595 -8.504706 -32.046306
-1.937963 -8.616508 -32.013311
-1.482224 -8.869127 -31.781614
-2.063853 -8.594251 -31.545645
-2.058030 -8.148093 -32.262342
-1.615928 -8.144604 -32.262545
-1.613597 -7.851520 -32.443596
-1.900643 -7.874308 -32.368319
-0.915910 -7.887165 -32.634409
-1.414372 -7.821462 -32.634011
-1.409072 -8.176271 -32.412408
-0.893773 -8.169793 -32.345645
-0.899218 -8.100276 -32.418951
-0.921257 -7.818910 -32.564304
-1.412232 -7.964713 -32.491121
-1.139413 -7.901136 -32.443432
-1.413296 -7.893463 -32.562943
-1.394646 -7.962732 -32.368227
-1.192695 -7.583401 -32.591478
-0.805518 -7.527294 -32.698368
-0.960827 -7.313720 -32.895980
-1.420879 -7.385785 -32.904161
-1.415394 -7.753006 -32.563906
-0.788412 -7.693273 -32.563212
-0.985843 -7.310990 -32.374946
-2.008489 -7.516185 -32.633740
-1.557907 -7.501328 -32.594286
-1.589406 -7.151179 -32.830998
-1.597071 -7.438268 -32.702770
-1.595283 -7.371319 -32.631239
-1.439210 -7.241160 -32.578431
-1.870153 -7.267950 -32.659154
-1.885456 -7.572283 -32.519575
-1.447173 -7.542556 -32.446126
-1.597204 -7.443284 -32.563120
-1.483112 -7.232275 -32.291081
-1.915692 -8.173590 -32.205396
-1.464902 -8.213528 -32.069845
-1.649476 -7.949944 -31.913075
-1.788107 -7.947561 -31.908566
-1.983178 -8.405048 -31.691367
-1.673149 -8.237587 -31.736923
-1.756556 -7.873566 -31.852608
-1.724357 -7.966257 -31.528193
-1.781338 -7.931685 -31.760754
-1.259063 -8.388187 -32.193035
-1.242986 -8.287757 -31.673286
-0.984984 -8.268652 -31.818519
-0.866138 -8.074743 -31.539810
-1.211746 -7.930508 -31.780723
-0.985570 -7.615383 -32.083873
-0.878178 -7.266471 -31.987733
-0.993756 -7.599316 -31.839383
-2.058467 -7.519189 -32.158943
-1.993510 -7.533205 -31.861953
-1.625534 -7.659027 -32.077786
-1.679433 -7.315859 -32.089326
-1.815958 -7.151757 -32.107315
-1.932496 -7.402123 -31.897178
-1.905023 -7.343102 -31.987682
-1.871582 -7.271258 -31.930043
-2.020420 -7.591017 -31.769249
-1.604670 -7.624000 -31.672645
-3.258650 -8.128904 -32.301489
-2.797314 -8.101558 -32.251127
-2.747909 -7.825921 -32.412801
-3.196868 -7.850753 -32.328029
-2.685302 -7.476639 -32.634404
-2.197361 -7.249857 -32.733476
-2.585283 -7.213947 -32.663059
-2.630127 -7.516162 -32.518201
-2.200308 -7.567764 -32.447010
-2.673223 -7.409249 -32.564299
-2.450499 -7.217564 -32.226015
-3.042404 -7.155335 -32.774140
-2.850773 -7.443725 -32.632777
-3.346216 -7.200176 -32.621424
-3.157201 -7.553941 -32.368460
-2.864245 -7.514437 -32.560223
-2.837822 -7.375749 -32.563397
-2.869027 -7.276548 -32.215845
-3.084874 -7.260310 -32.519716
-3.334936 -8.275511 -32.013452
-2.834338 -8.308113 -32.158274
-2.955882 -7.995412 -32.173459
-3.228870 -7.844904 -32.205537
-3.251079 -7.879840 -31.887874
-3.261793 -8.233916 -31.672861
-2.905104 -8.281874 -31.498989
-2.910026 -7.999288 -31.598590
-3.318482 -7.986274 -31.693990
-2.272383 -8.161043 -32.137153
-2.220303 -7.844034 -32.008229
-2.697108 -7.967557 -32.205457
-2.500500 -8.298346 -31.759263
-2.290183 -8.170567 -31.499031
-2.168476 -7.909095 -31.592230
-2.698828 -7.932229 -31.673236
-2.699086 -7.640447 -31.879578
-2.427347 -7.491568 -31.973968
-2.326536 -7.634688 -32.069445
-2.319393 -7.293450 -31.954079
-2.528454 -7.304452 -32.084300
-2.623774 -7.655678 -31.847080
-2.642728 -7.143743 -31.528084
-3.071097 -7.531815 -32.058830
-3.333349 -7.533450 -31.892816
-2.740147 -7.710297 -31.934687
-3.092211 -7.167984 -32.010707
-3.368633 -7.586927 -31.795343
-3.200079 -7.436787 -31.768401
-2.907808 -6.569909 -33.072720
-2.570503 -6.836171 -32.960212
-2.136202 -6.607237 -33.123375
-2.491142 -6.579510 -33.059730
-2.615230 -6.207422 -33.328704
-2.407004 -5.924000 -33.530928
-2.559539 -5.915116 -33.421100
-2.445045 -6.268855 -33.168037
-2.145919 -6.288558 -33.181461
-2.096883 -6.057272 -32.963909
-2.604326 -6.150189 -33.249916
-2.831839 -6.207348 -33.328536
-2.761667 -5.891424 -33.557474
-3.037990 -5.934437 -33.421264
-3.331270 -6.024820 -33.347540
-3.079464 -6.104752 -33.297259
-2.849051 -6.284837 -33.269189
-2.981080 -5.974996 -32.950481
-3.354666 -6.100871 -33.286735
-3.302360 -5.997362 -32.943842
-1.071573 -5.899852 -33.790483
-1.442884 -5.912562 -33.739932
-1.956658 -6.855058 -33.086139
-1.581700 -6.862542 -32.948092
-1.598626 -6.766895 -32.981453
-2.077200 -6.554409 -33.026982
-1.020123 -6.556709 -33.364824
-1.433111 -6.566841 -33.307362
-1.428437 -6.879751 -33.070809
-0.995492 -6.871162 -33.131578
-1.007712 -6.715159 -33.249861
-1.429592 -6.802461 -33.131179
-1.414765 -6.545234 -33.167884
-0.891244 -6.192330 -33.502421
-0.911582 -5.895473 -33.572580
-1.309293 -5.984745 -33.432780
-1.300413 -6.248216 -33.264429
-0.889272 -6.492448 -33.284646
-0.986903 -6.130416 -33.066993
-1.298325 -5.993389 -33.101382
-1.908882 -6.245661 -33.420890
-1.553039 -6.292429 -33.290361
-1.587124 -5.933622 -33.432874
-2.081462 -6.032068 -33.403953
-2.046290 -6.299979 -33.206278
-1.565635 -6.260781 -33.284875
-1.491916 -6.035461 -33.067009
-2.052884 -6.052952 -32.947786
-1.453165 -5.224227 -34.115940
-1.830129 -5.241150 -34.027638
-1.857038 -5.584379 -33.839592
-1.876801 -5.836456 -33.689139
-1.447965 -5.572352 -33.935182
-1.444143 -5.828285 -33.790085
-1.548236 -5.609073 -33.706059
-1.578986 -5.344023 -33.879696
-1.927487 -5.322067 -33.792440
-1.105081 -5.472071 -34.027792
-1.084859 -5.730239 -33.888114
-0.983082 -5.333352 -33.984907
-1.335484 -5.207616 -33.974666
-1.132560 -5.121254 -34.201182
-1.029810 -4.755989 -34.359427
-1.353589 -4.670431 -34.326298
-1.401948 -4.959912 -33.674427
-0.988103 -4.792770 -33.843984
-1.389816 -4.794852 -33.798857
-1.809555 -4.978716 -34.159071
-1.457137 -4.958310 -34.241804
-1.528718 -4.878014 -34.201229
-1.568975 -4.618686 -34.326392
-1.852602 -4.705656 -34.194648
-1.893738 -5.044263 -33.932166
-1.477256 -5.078830 -33.692880
-1.929377 -4.739348 -33.839754
-1.971627 -5.685399 -33.592530
-1.813569 -5.609896 -33.316488
-1.585896 -5.844592 -33.487131
-1.434650 -5.339628 -33.507723
-1.737318 -5.489490 -33.309114
-1.443628 -5.504729 -33.341649
-1.991857 -5.385824 -33.432986
-1.994994 -5.718338 -33.182692
-1.466439 -5.725887 -33.156844
-1.970416 -5.335240 -33.059274
-1.397238 -5.652638 -33.559051
-0.917222 -5.813152 -33.621678
-1.089128 -5.573476 -33.364742
-0.951228 -5.296675 -33.477757
-1.371006 -5.381188 -33.334944
-1.386054 -5.580587 -33.131880
-0.890009 -5.841305 -33.030368
-1.087144 -5.585995 -32.987318
-0.824567 -5.393207 -33.106377
-1.374687 -5.382971 -33.202396
-1.327433 -5.083255 -33.484573
-0.987814 -5.115156 -33.571102
-0.863054 -5.104568 -33.314935
-0.803721 -4.977097 -33.301779
-0.937200 -4.790911 -33.535623
-1.241580 -4.737445 -33.460827
-1.174276 -5.191931 -33.259977
-0.896479 -5.176377 -33.250344
-1.889817 -5.110403 -33.558651
-1.796390 -5.037820 -33.308528
-1.489878 -5.098762 -33.552892
-1.553207 -4.835482 -33.519067
-2.067057 -4.859099 -33.609956
-1.459312 -5.181106 -33.248209
-3.363700 -5.584265 -33.694214
-3.033665 -5.298347 -33.709499
-3.288515 -5.342495 -33.855904
-2.697297 -5.566992 -33.655137
-2.348476 -5.597474 -33.740325
-2.300884 -5.297327 -33.780804
-2.640638 -5.297052 -33.815352
-2.548838 -4.933241 -34.027680
-2.227020 -4.919862 -34.116333
-2.210058 -4.685231 -34.199217
-2.504600 -4.648941 -34.154755
-2.538785 -5.043302 -33.879883
-2.259848 -5.020773 -33.927829
-2.235915 -4.779961 -33.833670
-2.411480 -4.873104 -33.687266
-3.159960 -4.929104 -34.107371
-3.054399 -4.589653 -34.291930
-2.971516 -4.855383 -34.021648
-3.251012 -4.640706 -34.015021
-3.197369 -5.049401 -33.924531
-3.047568 -5.102602 -33.875024
-2.788616 -4.910375 -33.948973
-3.226057 -4.639972 -33.727408
-3.235846 -5.714627 -33.582289
-2.743802 -5.810995 -33.612564
-2.761653 -5.380118 -33.322134
-3.171176 -5.504409 -33.612745
-3.145629 -5.667448 -33.119169
-3.055469 -5.715524 -33.179175
-2.785987 -5.788769 -33.143778
-2.747081 -5.689315 -33.049388
-3.029887 -5.542245 -33.048737
-2.991890 -5.373374 -33.182655
-3.141877 -5.353841 -33.022539
-2.544388 -5.835592 -33.476472
-2.396457 -5.311562 -33.415302
-2.435364 -5.359225 -33.491568
-2.709292 -5.320345 -33.391223
-2.582681 -5.733572 -33.147627
-2.088439 -5.683132 -32.963364
-2.470102 -5.396096 -33.083634
-2.508833 -5.091511 -33.517153
-2.170918 -4.985899 -33.477727
-2.370267 -4.828511 -33.610357
-2.096976 -4.843000 -33.450281
-2.719867 -4.766730 -33.473116
-2.431895 -4.857290 -33.477076
-2.684923 -5.147115 -33.275340
-3.350213 -4.934944 -33.348623
-2.971973 -5.057646 -33.432813
-3.046310 -4.592729 -33.628646
-3.382412 -4.819221 -33.600555
-3.108236 -4.647216 -33.559925
-3.262136 -4.632664 -33.490207
-3.339848 -4.851007 -33.421530
-3.182114 -4.783869 -33.419815
-3.323940 -4.685052 -33.419765
-3.356174 -4.998547 -33.276560
-2.736718 -5.206442 -33.203901
-3.273386 -6.901101 -32.768360
-2.770692 -7.023402 -32.770836
-3.023188 -7.119605 -32.736677
-2.784441 -7.095564 -32.702777
-2.794586 -6.513761 -32.652997
-3.200054 -6.599957 -32.903501
-2.935556 -7.032782 -32.301879
-2.836432 -6.667829 -32.515660
-2.857728 -6.812604 -32.254937
-2.540136 -6.909691 -32.796194
-2.124644 -6.944946 -32.852414
-2.486492 -6.672496 -32.624589
-2.677083 -6.973454 -32.355431
-2.212112 -6.973306 -32.445725
-2.158393 -6.720648 -32.474812
-2.562361 -6.792298 -32.460621
-2.659350 -6.511943 -32.390740
-2.501370 -6.272510 -32.575278
-2.671250 -6.059665 -32.903208
-2.601660 -6.414062 -32.361166
-3.215583 -6.261292 -32.686578
-2.784872 -5.862687 -32.737713
-3.371209 -5.933204 -32.787387
-2.977538 -7.056454 -31.993074
-2.753209 -6.673067 -32.192878
-3.340020 -6.685599 -32.162277
-2.849015 -6.660704 -31.688699
-3.184799 -6.647052 -31.672761
-2.116851 -6.921746 -32.194999
-2.544136 -6.875292 -31.559181
-2.196541 -6.872428 -31.717829
-2.446878 -6.610472 -31.723142
-2.348627 -6.342949 -31.875895
-2.249529 -6.073121 -32.017426
-2.567545 -5.999886 -32.017560
-2.091228 -6.452540 -31.647555
-2.875127 -5.997400 -32.014444
-2.771280 -6.385450 -31.780315
-1.853672 -6.940188 -32.929657
-1.587410 -7.076412 -32.896027
-1.601716 -6.602372 -32.727226
-1.799156 -6.998684 -32.395553
-1.570589 -6.991398 -32.442020
-1.575439 -6.635033 -32.348069
-1.912124 -6.546030 -32.411484
-2.051135 -6.801144 -32.368021
-2.004600 -6.583517 -32.348338
-1.430637 -6.916690 -32.840285
-0.832381 -7.051502 -32.872569
-1.231489 -6.642159 -32.583694
-1.343076 -6.903857 -32.412158
-0.986113 -7.010899 -32.510417
-1.264255 -6.650544 -32.367983
-1.425059 -6.311961 -32.603487
-0.874992 -5.969475 -32.728341
-1.273271 -5.985865 -32.697308
-1.126389 -6.423100 -32.525428
-1.394651 -6.246635 -32.537080
-0.991967 -6.336998 -32.519844
-1.975180 -6.408976 -32.590676
-1.519358 -6.368898 -32.825007
-1.752644 -6.030409 -32.910200
-1.479457 -6.047486 -32.767785
-1.567185 -5.912998 -32.766055
-1.600642 -5.974398 -32.834704
-1.705832 -6.167443 -32.603586
-1.669170 -5.950895 -32.697577
-1.826030 -6.155251 -32.903365
-1.890681 -6.060084 -32.591943
-2.024606 -6.332975 -32.443878
-1.485177 -6.441116 -32.445602
-1.783036 -7.081029 -32.048021
-1.907679 -6.891345 -31.654348
-1.546663 -6.508446 -31.723105
-1.851565 -6.584503 -31.722943
-1.363171 -6.933407 -32.205060
-0.831130 -7.130979 -32.013571
-1.020911 -6.937455 -31.672492
-0.990900 -6.591297 -31.581127
-1.318972 -6.625172 -31.734678
-1.263011 -6.341123 -32.017411
-0.925629 -6.220035 -31.876932
-0.883513 -5.937329 -32.008176
-1.150391 -5.928322 -31.945850
-1.401025 -5.885835 -31.945859
-1.766479 -6.314376 -32.001548
-1.696950 -6.033334 -32.017228
-2.028753 -5.999297 -31.947672
-1.719802 -5.711892 -32.796369
-1.464891 -5.578447 -32.368194
-1.726539 -5.641400 -32.372732
-1.815000 -5.364993 -32.405516
-1.150746 -5.722635 -32.846202
-0.831313 -5.832240 -32.720788
-1.176182 -5.649876 -32.368125
-1.074270 -5.286525 -32.557830
-0.796164 -5.350986 -32.374616
-1.014370 -5.212531 -32.314336
-1.423714 -5.327722 -32.569168
-1.267071 -4.991897 -32.746619
-1.002138 -5.016967 -32.719575
-0.900690 -4.614307 -32.638374
-1.216759 -4.731998 -32.927864
-1.322913 -4.676543 -32.664182
-1.906969 -5.140378 -32.709728
-1.505203 -5.061677 -32.762271
-1.931847 -4.794651 -32.709653
-3.129767 -5.656650 -32.894045
-3.017681 -5.312607 -32.353298
-2.220948 -5.847505 -32.834530
-2.119147 -5.718110 -32.353300
-2.308372 -5.391416 -32.353067
-2.187791 -4.762067 -32.709501
-2.427945 -5.059271 -32.544897
-2.162567 -4.970887 -32.529744
-2.783838 -4.897583 -32.729396
-3.305895 -5.824130 -32.089530
-2.628196 -5.726941 -32.088729
-5.159473 -6.261199 -32.988036
-4.694408 -6.288387 -33.059791
-4.927243 -5.955705 -33.027819
-5.043045 -5.927172 -33.129850
-5.962951 -6.198420 -32.971888
-5.445141 -5.908675 -33.060443
-5.755167 -5.883682 -33.203265
-5.920891 -6.134710 -33.048835
-5.749811 -5.913534 -32.985021
-5.843906 -5.907622 -33.055138
-4.177959 -6.551905 -32.987553
-4.608076 -6.506893 -32.988834
-3.773871 -6.903242 -32.987268
-3.663021 -6.546785 -33.184874
-3.800245 -6.515520 -33.118775
-3.574431 -6.261908 -33.301730
-3.461517 -5.898814 -33.466348
-3.926085 -5.929293 -33.302014
-3.829381 -6.265551 -33.083508
-3.597913 -6.337418 -33.238619
-3.398603 -6.107228 -32.932466
-3.780407 -5.956194 -33.265321
-4.323049 -5.896426 -33.315082
-4.543772 -6.196700 -33.012796
-4.037966 -6.205854 -33.185158
-4.149283 -6.481021 -33.056913
-4.356558 -5.968196 -33.250491
-4.389778 -6.039346 -33.185070
-4.057110 -5.326843 -33.662799
-3.383819 -5.332634 -33.803042
-3.659951 -5.271432 -33.694498
-4.021176 -5.392953 -33.662669
-3.743074 -5.476905 -33.662886
-4.021781 -5.251177 -33.719917
-3.385032 -4.591854 -34.021657
-3.671234 -4.651235 -34.058973
-3.710148 -4.583726 -34.059102
-3.856191 -4.991960 -33.822945
-3.391150 -4.988934 -33.815096
-3.417557 -4.672255 -33.973691
-3.732587 -4.657160 -33.815274
-4.409075 -4.928656 -33.719961
-4.060219 -5.137073 -33.648041
-4.236038 -4.684191 -33.822888
-4.371716 -4.758519 -33.913910
-4.358379 -5.609303 -33.441840
-4.091661 -5.542349 -33.545811
-4.229404 -5.834302 -33.301796
-4.079201 -5.354510 -33.450115
-4.566342 -5.291806 -33.487894
-4.377033 -5.831318 -33.216885
-4.307268 -5.609050 -32.997696
-4.072350 -5.345795 -33.174854
-4.563149 -5.375769 -33.083369
-3.783485 -5.576799 -33.466632
-3.412964 -5.742684 -33.582014
-3.528023 -5.329047 -33.599551
-3.722168 -5.425227 -33.582299
-3.997389 -5.342536 -33.582081
-3.889333 -5.626102 -32.995001
-3.413558 -5.576709 -33.123468
-3.686196 -5.236902 -33.187758
-3.775821 -5.397237 -33.186004
-4.023219 -5.452291 -32.935751
-3.857922 -5.391236 -32.950090
-3.855452 -5.304676 -33.030203
-3.722912 -5.054357 -33.326176
-3.400122 -4.904041 -33.348705
-3.478110 -4.796984 -33.516223
-3.884594 -4.701034 -33.421272
-3.797715 -5.173890 -33.251032
-3.892097 -4.913290 -33.195428
-3.900280 -5.173592 -33.109297
-3.575072 -5.207194 -33.125304
-3.459817 -4.956565 -33.275039
-3.555526 -5.035573 -33.200196
-3.556999 -4.882607 -33.274908
-3.793744 -4.881419 -33.271387
-4.411132 -5.006287 -33.591473
-4.158611 -4.736596 -33.509691
-4.504971 -4.679895 -33.318073
-4.420594 -5.116477 -33.059686
-4.313761 -5.017508 -33.178413
-4.184204 -4.793382 -33.228352
-4.540334 -4.750673 -33.104393
-5.112884 -4.910793 -33.783971
-4.815526 -4.918703 -33.764876
-4.826548 -4.693657 -33.673153
-5.081244 -4.862865 -33.704574
-5.640215 -4.640952 -33.737991
-5.543893 -5.563657 -33.415809
-5.341077 -5.256445 -33.467453
-5.675295 -5.762696 -33.203998
-5.950074 -5.540125 -33.031022
-5.421596 -5.606560 -33.102710
-5.413197 -5.419268 -33.267495
-5.942133 -5.285159 -33.104670
-5.276937 -5.644201 -33.341762
-4.788686 -5.602761 -33.391392
-4.704108 -5.337147 -33.441846
-5.113678 -5.387501 -33.467692
-5.242643 -5.590279 -33.267476
-4.734410 -5.600976 -33.227669
-4.796816 -5.373718 -32.965171
-5.246905 -5.338554 -33.237163
-5.185796 -5.085363 -33.596930
-4.829766 -4.941092 -33.625416
-5.248552 -4.638811 -33.550665
-5.053153 -5.047218 -33.023174
-4.946873 -4.967003 -33.073237
-4.813840 -4.723469 -33.216207
-5.126392 -4.793768 -33.194206
-5.882761 -4.950030 -33.552626
-5.538949 -5.011913 -33.450499
-5.488545 -4.742554 -33.438337
-5.935777 -4.777291 -33.477107
-5.672256 -4.776103 -33.401015
-5.836978 -5.148883 -33.249620
-5.456219 -4.990301 -32.936170
-5.641961 -4.597318 -32.942730
-5.482828 -6.835406 -32.590755
-5.340457 -6.582587 -32.758529
-5.839685 -6.529035 -32.736525
-5.662153 -7.004918 -32.411632
-5.450748 -6.918726 -32.394689
-5.354476 -6.626074 -32.245152
-5.955901 -6.711768 -32.493967
-5.020177 -6.946737 -32.603729
-4.765038 -6.843071 -32.622668
-4.891665 -6.687026 -32.766198
-5.304102 -6.518029 -32.834795
-5.051952 -7.010952 -32.525161
-4.865145 -6.935743 -32.500314
-5.304339 -6.649397 -32.569633
-5.117368 -6.305452 -32.808431
-4.761919 -6.424821 -32.917266
-4.711690 -5.879015 -32.732631
-5.157337 -6.126132 -32.917272
-5.192668 -6.370415 -32.421071
-4.904095 -6.227356 -32.276106
-4.809866 -6.038269 -32.539131
-5.127289 -5.948939 -32.370099
-5.676232 -6.251091 -32.903506
-5.955800 -6.215998 -32.894399
-5.801015 -6.468233 -32.670118
-5.811934 -6.205402 -32.718712
-5.337890 -6.440438 -32.834852
-5.644366 -6.221927 -32.834830
-5.640666 -5.942649 -32.880600
-5.873925 -6.095778 -32.903497
-5.507386 -5.897701 -32.334081
-5.792203 -6.047022 -32.394956
-5.593813 -7.004228 -32.034501
-5.550870 -6.578905 -31.974644
-5.687821 -6.788043 -31.949954
-5.861901 -6.537007 -31.856981
-5.729801 -6.995833 -31.698147
-5.470717 -7.014051 -31.702429
-5.385858 -6.651249 -31.855077
-4.999919 -6.565304 -31.989999
-5.275588 -6.554225 -31.902430
-5.318683 -6.869138 -31.855162
-4.874735 -7.074836 -31.730160
-5.317450 -6.702955 -31.854995
-5.302616 -6.459078 -32.172139
-5.050182 -6.462754 -32.044940
-5.239869 -6.309105 -32.044890
-4.955232 -6.272350 -32.181417
-5.076440 -6.170573 -32.181285
-5.021993 -6.241455 -31.696647
-5.695825 -6.404060 -32.009236
-5.974121 -6.241877 -32.009547
-5.414453 -6.457093 -32.055747
-5.412401 -6.177176 -32.197957
-5.595212 -5.907822 -32.141834
-5.957388 -6.031471 -32.055554
-5.681925 -6.026408 -32.198267
-5.783681 -5.904582 -32.197608
-5.838005 -5.944264 -32.099806
-5.951577 -6.171807 -32.009072
-5.891495 -5.983337 -32.001302
-5.796893 -6.484966 -31.805331
-4.370613 -7.028131 -32.622755
-4.068943 -6.934024 -32.736301
-4.343367 -6.960780 -32.697542
-4.206359 -6.622108 -32.917391
-4.580970 -6.616745 -32.736257
-4.114859 -6.924871 -32.244121
-4.089184 -6.755592 -32.218126
-3.973059 -7.006408 -32.774558
-3.485763 -6.914112 -32.736668
-3.402247 -6.615632 -32.871808
-4.025046 -6.564095 -32.877795
-3.728645 -6.943605 -32.259844
-3.683708 -6.888553 -32.348407
-3.572000 -6.667084 -32.447174
-3.863386 -6.677058 -32.368449
-3.718863 -6.323532 -32.591837
-3.402494 -6.489484 -32.641453
-3.660510 -6.264578 -32.578278
-3.603006 -6.040129 -32.728201
-4.027802 -5.905287 -32.871642
-3.799439 -6.423711 -32.315013
-3.399888 -6.486302 -32.491916
-3.610889 -6.207741 -32.515753
-4.237202 -6.327484 -32.591701
-4.100780 -6.052425 -32.733335
-4.523078 -5.892106 -32.615062
-4.640483 -6.222704 -32.344807
-4.492395 -5.880226 -32.552989
-4.481890 -7.113276 -31.948083
-4.177331 -6.856558 -32.029716
-4.174787 -6.604004 -32.121230
-4.485431 -6.627694 -32.009341
-4.504697 -7.003304 -31.798465
-3.810489 -6.987590 -32.124924
-3.940707 -6.585522 -32.194324
-3.730973 -6.578558 -31.753805
-3.482748 -6.138008 -32.009284
-4.532895 -5.801735 -32.817733
-4.246087 -5.648388 -32.750368
-4.079617 -5.501914 -32.853373
-4.439203 -5.398118 -32.835110
-4.197473 -5.210688 -32.375088
-4.023378 -5.539936 -32.853291
-3.685551 -5.708977 -32.732777
-4.000898 -5.437107 -32.868999
-3.871450 -4.803114 -32.569266
-4.659953 -5.788854 -31.913200
-4.387613 -5.448390 -32.084014
-5.718208 -5.582233 -32.655986
-5.336661 -5.771806 -32.616248
-5.445343 -5.290862 -32.857501
-5.628757 -5.410027 -32.596368
-5.390222 -5.523163 -32.587880
-5.473266 -5.250814 -32.586831
-5.537730 -5.292465 -32.647754
-5.876939 -5.571272 -32.538723
-5.775604 -5.705732 -32.224079
-5.966193 -5.569292 -32.295234
-5.429570 -5.785119 -32.428404
-5.598238 -5.331558 -32.556015
-5.782851 -5.450836 -32.428757
-5.154628 -5.637573 -32.586953
-4.785038 -5.674963 -32.615086
-4.896613 -5.390319 -32.791368
-5.023875 -5.273576 -32.815730
-5.289284 -5.366662 -32.810678
-5.254638 -5.518127 -32.586293
-5.014106 -5.477355 -32.614922
-5.015170 -5.343201 -32.640820
-5.331576 -5.768056 -32.463645
-5.305715 -5.398675 -32.528878
-5.038164 -4.969698 -32.900174
-5.141006 -4.639661 -32.301947
-5.665495 -5.027914 -32.586507
-5.476767 -4.915073 -32.854712
-5.412578 -4.876694 -32.791396
-5.836378 -4.763157 -32.810082
-5.800854 -5.131685 -32.358584
-5.547033 -4.958955 -32.544470
-5.952666 -5.842629 -31.951089
-5.954067 -5.378357 -31.696620
-5.578422 -5.037069 -31.979581
-5.860819 -9.485863 -31.199284
-5.712069 -9.152402 -31.412474
-5.050428 -9.672742 -31.203388
-5.171284 -9.412371 -31.305519
-4.912646 -9.675363 -31.347332
-4.817198 -9.404239 -31.448356
-4.877358 -9.189811 -31.453480
-5.323443 -9.383448 -31.347471
-5.215649 -9.116991 -31.448496
-4.879362 -9.582648 -30.786379
-4.708393 -9.201369 -31.098008
-5.013814 -9.196429 -30.945602
-5.161762 -8.983786 -31.495413
-4.703560 -8.550575 -31.329275
-4.823689 -8.800648 -31.092299
-5.825111 -8.867091 -31.407477
-5.557171 -8.805157 -31.453437
-5.354462 -8.580130 -31.298875
-5.514717 -8.903242 -31.099952
-4.814618 -8.501813 -30.688555
-4.638218 -9.682700 -31.398899
-4.382159 -9.440893 -31.397716
-4.552871 -9.408251 -31.495129
-4.441413 -9.633507 -31.249472
-4.399463 -9.497141 -31.299403
-4.206779 -9.490965 -31.299041
-4.108896 -9.141138 -31.481381
-4.528143 -9.328735 -31.443479
-4.666259 -9.529936 -31.046878
-3.890678 -9.436031 -31.430093
-3.631413 -9.479146 -31.385216
-3.528669 -9.216497 -31.288003
-3.453819 -9.245205 -30.982765
-3.794554 -8.452772 -31.305309
-3.629409 -8.492863 -30.792899
-3.934968 -8.692744 -31.046590
-4.433866 -8.916504 -31.343124
-4.441036 -8.605132 -31.367547
-4.126698 -9.020419 -30.982134
-4.613200 -8.572868 -31.041522
-3.742870 -8.759240 -30.688324
-3.440098 -8.891549 -30.688328
-4.104275 -8.575992 -30.688345
-4.288868 -8.265779 -31.379127
-4.611597 -8.141491 -30.993128
-4.428481 -7.816496 -31.027713
-3.723417 -8.124635 -31.494147
-3.491478 -8.169037 -30.985124
-3.549797 -7.746062 -31.161014
-3.460081 -7.224557 -31.350433
-4.150887 -7.323822 -31.320823
-4.105935 -8.403831 -30.741853
-5.193054 -8.254696 -31.481215
-4.683907 -8.113883 -31.443679
-5.258114 -7.915187 -31.307833
-5.357585 -7.629422 -31.359140
-5.961489 -7.415956 -30.945084
-3.240998 -9.491911 -31.434873
-2.922491 -9.486461 -31.424579
-3.214343 -9.352008 -31.475285
-3.150192 -9.595365 -30.993393
-3.052487 -9.235355 -31.027978
-2.430264 -9.697063 -31.481356
-2.596407 -9.194568 -31.217067
-2.281355 -9.559058 -30.933198
-2.548784 -8.919304 -31.437633
-2.177005 -8.859619 -31.442845
-2.087351 -8.649359 -31.445563
-2.411921 -8.432107 -31.396232
-2.458796 -8.525443 -30.944740
-2.730987 -8.437469 -30.944820
-2.793724 -8.995037 -31.298542
-2.866393 -8.549655 -31.350908
-3.062692 -8.448227 -31.299216
-2.782060 -8.574082 -30.894386
-2.583515 -9.193746 -30.688358
-2.498856 -8.891958 -30.642081
-2.382433 -8.476935 -30.782839
-1.980378 -9.224643 -31.197104
-2.025629 -9.511655 -31.122590
-0.983819 -9.567697 -31.272993
-0.984141 -9.207903 -31.437600
-1.324007 -9.214284 -31.288963
-1.355042 -9.569191 -31.123109
-1.298717 -8.925084 -31.350957
-0.984404 -8.915716 -31.498178
-0.977029 -8.464301 -31.249350
-1.267631 -8.569592 -31.488111
-0.922091 -8.571976 -30.782954
-1.924934 -8.872980 -31.350439
-1.660631 -8.437869 -31.329386
-1.879923 -8.587493 -31.403051
-1.636696 -8.487426 -30.782992
-1.759839 -9.135448 -30.639516
-0.982061 -9.143596 -30.590483
-1.395931 -9.376974 -30.639426
-1.319901 -8.866618 -30.738373
-1.905400 -8.751688 -30.738341
-1.960373 -8.375095 -31.449344
-1.852932 -7.817761 -31.173337
-1.933266 -8.161191 -31.012543
-1.630613 -8.207011 -31.026890
-1.517930 -7.862438 -31.026859
-1.223361 -8.260541 -31.494185
-0.898910 -8.189868 -31.346823
-0.843490 -7.995179 -31.487287
-1.226128 -8.237162 -30.993231
-0.855713 -7.939276 -31.026821
-1.183907 -7.953747 -31.057960
-1.149343 -7.564190 -31.350164
-0.890863 -7.555812 -31.350679
-1.080661 -7.260702 -31.321386
-1.494991 -7.518618 -31.302601
-1.722120 -7.258532 -31.281375
-2.059629 -7.326206 -31.281213
-2.810798 -8.344801 -31.464443
-3.156949 -8.157663 -31.027486
-2.750183 -8.140110 -30.918992
-2.376110 -8.355171 -31.347237
-2.680973 -8.141252 -31.038547
-2.288130 -8.140763 -30.957272
-2.530428 -7.746943 -31.310713
-2.112264 -7.497953 -31.320459
-2.205212 -7.773549 -31.253745
-2.458602 -7.274854 -31.342117
-3.090828 -7.707503 -31.197235
-2.959214 -7.376717 -31.350570
-3.297162 -7.170377 -31.291229
-2.830562 -7.778118 -31.049271
-2.986524 -6.983539 -31.425838
-2.345627 -6.939606 -31.464551
-1.641989 -6.915969 -31.401417
-1.360396 -7.033438 -31.321475
-5.333265 -6.630588 -31.379272
-5.688357 -7.074503 -31.081945
-4.008681 -7.071436 -31.378116
-5.680129 -4.483235 -33.659916
-5.342000 -4.260936 -33.963105
-5.625339 -4.420214 -33.722351
-5.365084 -4.377804 -33.654770
-5.570122 -4.356701 -33.783904
-5.365945 -4.121850 -33.882030
-5.639864 -4.047336 -33.774547
-4.701776 -4.288072 -34.159886
-5.148067 -4.013806 -34.051358
-5.274622 -4.420099 -33.693434
-4.846539 -4.507349 -33.995957
-4.764058 -4.016333 -33.932805
-4.781527 -4.033529 -33.674721
-5.198062 -4.161233 -33.841839
-5.039571 -3.875550 -34.159724
-4.727520 -3.711082 -34.124537
-4.989757 -3.689143 -34.128136
-4.873437 -3.555348 -34.229873
-4.968870 -3.304934 -34.262914
-5.034055 -3.377056 -34.210478
-5.102819 -3.687706 -33.714768
-4.760553 -3.791538 -33.714733
-4.899707 -3.483481 -33.822823
-5.284716 -3.357370 -33.713414
-5.654196 -3.369192 -34.016475
-5.354233 -3.731309 -33.933114
-5.800862 -3.364060 -33.650251
-5.883958 -4.317407 -33.517022
-5.407953 -4.346273 -33.293031
-5.621518 -4.197975 -33.372216
-5.338039 -4.061600 -33.315660
-5.578391 -3.957261 -33.301773
-5.680294 -4.482241 -33.120305
-5.973120 -4.546013 -33.102708
-5.766319 -4.517808 -32.942428
-5.731461 -4.259175 -32.964866
-5.889680 -4.304935 -33.030112
-5.548615 -4.490671 -33.015729
-5.611991 -4.178674 -33.219218
-5.357751 -3.947299 -33.246540
-5.564278 -4.042243 -33.151471
-5.634592 -4.074567 -33.068379
-5.830744 -4.099296 -33.135076
-4.789903 -4.418307 -33.326688
-4.949855 -4.093728 -33.483590
-4.699639 -4.057809 -33.489709
-4.971377 -4.206371 -33.326679
-5.056615 -3.931203 -33.484113
-5.295320 -4.273166 -33.233693
-4.856628 -4.293672 -33.177405
-4.878290 -4.546742 -33.097828
-4.915421 -4.199686 -33.257285
-5.232629 -4.240604 -33.165784
-5.318011 -3.807461 -33.475737
-4.964769 -3.887032 -33.561191
-4.809756 -3.622317 -33.567313
-4.936495 -3.629697 -33.565466
-4.998858 -3.501976 -33.640213
-4.734045 -3.589325 -33.640659
-5.036681 -3.598126 -33.565263
-5.051876 -3.323577 -33.059588
-5.718348 -3.808175 -33.361245
-5.407769 -3.809892 -33.407179
-5.443387 -3.410933 -33.569351
-5.724628 -3.505871 -33.566257
-5.859275 -3.855076 -33.134882
-4.416701 -4.291612 -34.128442
-4.056448 -4.353824 -34.038669
-4.200567 -3.951775 -34.241674
-4.603715 -4.139535 -34.264529
-4.675477 -4.461889 -33.849830
-4.199900 -4.557206 -33.992200
-4.043106 -4.379819 -33.671680
-4.075126 -4.058950 -33.709549
-3.787018 -4.454632 -34.059198
-3.482159 -4.250480 -34.291997
-3.437830 -4.064141 -34.154677
-3.872680 -4.015771 -34.238433
-3.973335 -4.334488 -33.739529
-3.619989 -4.505912 -33.710168
-3.519397 -4.039562 -33.906645
-3.710935 -4.164005 -33.859601
-4.028941 -4.049411 -33.709722
-3.412351 -3.680749 -34.022294
-3.464303 -3.322119 -34.206785
-3.954689 -3.367860 -34.025496
-3.914101 -3.901974 -33.849113
-4.012845 -3.649762 -33.978818
-3.933346 -3.913585 -33.704346
-4.026027 -3.712926 -33.772826
-3.502880 -3.826371 -33.993456
-3.673963 -3.520244 -33.959090
-3.987455 -3.435810 -33.973194
-4.429023 -3.874923 -34.327923
-4.104194 -3.800242 -34.334909
-4.041068 -3.460651 -34.051364
-4.293693 -3.363509 -34.052619
-4.463765 -3.369268 -34.238303
-4.471971 -3.660324 -33.855889
-4.111303 -3.773060 -33.763043
-4.052534 -3.500944 -33.966589
-4.670413 -3.514452 -33.857030
-4.379224 -3.554427 -33.937458
-4.367846 -3.429748 -33.848963
-4.553447 -3.355154 -33.920451
-4.522657 -3.497210 -33.709768
-4.445587 -3.463625 -33.779810
-4.471790 -3.433592 -33.779869
-4.612101 -3.418016 -33.709697
-4.494977 -4.328056 -33.489520
-4.034186 -4.540002 -33.543346
-4.268130 -4.282358 -33.571865
-4.338903 -4.517910 -33.342398
-4.241557 -4.176535 -33.494343
-4.546085 -4.117645 -33.626196
-4.601698 -4.107091 -33.313761
-4.466277 -4.235103 -33.418186
-4.645701 -4.052070 -33.418165
-4.618442 -4.388926 -33.265143
-3.862096 -4.500905 -33.421206
-3.427150 -4.555611 -33.423835
-3.818678 -4.181795 -33.635092
-3.848360 -3.465244 -33.294814
-4.373671 -3.903190 -33.567180
-4.638243 -3.737351 -33.641010
-4.301233 -3.863545 -33.638975
-4.207801 -3.791809 -33.087928
-4.461518 -3.079484 -34.013495
-4.164620 -3.180155 -34.015073
-4.138162 -2.844398 -34.255744
-4.539497 -2.809466 -34.100846
-4.413231 -3.261644 -33.917194
-4.243364 -3.261594 -33.906957
-4.591612 -2.827350 -33.917063
-3.880525 -3.093460 -34.186528
-3.597555 -3.262739 -34.207422
-3.409187 -3.011998 -34.243058
-3.622139 -3.104795 -34.206956
-3.703376 -3.140196 -34.146344
-3.493952 -2.943687 -34.242988
-3.903734 -2.891194 -34.285262
-3.887356 -2.531201 -34.358904
-3.504683 -2.555255 -34.314771
-3.388253 -2.220596 -34.020631
-3.701643 -2.428373 -33.840250
-4.394228 -2.612734 -34.062554
-4.081056 -2.631078 -34.353051
-4.108211 -2.147905 -34.284890
-4.373894 -2.215817 -34.288105
-4.658105 -2.065028 -34.181283
-4.309382 -2.027055 -33.780638
-4.519400 -2.126847 -33.762740
-4.350929 -2.858849 -33.516248
-4.527780 -2.976101 -33.264488
-3.453211 -3.106236 -33.608695
-5.953680 -3.266400 -34.243041
-5.515972 -3.237362 -34.131497
-5.475819 -2.733930 -34.296457
-5.838942 -2.952936 -34.158403
-5.756981 -3.102459 -33.704752
-5.581786 -3.126645 -33.815305
-5.441760 -2.880276 -33.861852
-5.806487 -2.796315 -33.711526
-4.768084 -2.834219 -34.062711
-5.201086 -2.937044 -34.262867
-5.095895 -2.644679 -34.072768
-5.287761 -3.008557 -33.788136
-4.819794 -3.200427 -33.979705
-4.847978 -2.895342 -33.992250
-5.098866 -2.904085 -33.981053
-5.120942 -2.650024 -33.926958
-4.814424 -2.506632 -34.140372
-4.689346 -2.169315 -34.245592
-4.976658 -2.117280 -34.062267
-5.303590 -2.255777 -34.148742
-5.051112 -2.178042 -34.090051
-5.122482 -2.141200 -34.071188
-5.062562 -2.131371 -33.994279
-5.770306 -2.514400 -34.242906
-5.477024 -2.280190 -34.007447
-5.768059 -2.029958 -34.011369
-5.685233 -2.493498 -33.791898
-5.562626 -2.292240 -33.935425
-5.470896 -2.004040 -34.003280
-5.756498 -2.245198 -33.786236
-5.749419 -3.173379 -33.545912
-5.352528 -3.266373 -33.509647
