1.800000 14.900000 -30.999999
1.700000 15.000000 -30.999999
1.800000 15.000000 -30.999999
1.900000 14.900000 -31.100000
2.000000 14.900000 -30.999999
1.900000 15.000000 -30.999999
2.000000 15.000000 -30.999999
1.800000 15.100000 -31.100000
1.700000 15.200000 -31.100000
1.700000 15.100000 -30.999999
1.800000 15.200000 -30.999999
2.000000 15.100000 -31.100000
1.900000 15.200000 -31.100000
2.000000 15.200000 -31.100000
1.900000 15.100000 -30.999999
2.200000 14.900000 -31.100000
2.100000 15.000000 -31.100000
2.100000 14.900000 -30.999999
2.200000 15.000000 -30.999999
2.400000 14.900000 -31.100000
2.300000 15.000000 -31.100000
2.400000 15.000000 -31.100000
2.300000 14.900000 -30.999999
2.400000 14.900000 -30.999999
2.100000 15.100000 -31.100000
2.200000 15.100000 -31.100000
2.200000 15.200000 -31.100000
2.200000 15.100000 -30.999999
2.100000 15.200000 -30.999999
2.200000 15.200000 -30.999999
2.300000 15.100000 -31.100000
2.400000 15.100000 -30.999999
2.400000 15.200000 -30.999999
2.200000 14.900000 -30.900001
2.200000 15.000000 -30.900001
2.500000 14.500000 -31.100000
2.600000 14.600000 -30.999999
2.700000 14.500000 -30.999999
2.800000 14.500000 -30.999999
2.700000 14.600000 -30.999999
2.600000 14.800000 -31.100000
2.500000 14.700000 -30.999999
2.600000 14.700000 -30.999999
2.500000 14.800000 -30.999999
2.700000 14.700000 -31.100000
2.800000 14.700000 -30.999999
2.800000 14.800000 -30.999999
2.600000 14.500000 -30.900001
2.500000 14.600000 -30.900001
2.700000 14.500000 -30.900001
2.800000 14.500000 -30.900001
2.800000 14.600000 -30.900001
2.800000 14.700000 -30.900001
2.700000 14.800000 -30.900001
3.000000 14.500000 -30.999999
2.900000 14.600000 -30.999999
3.000000 14.600000 -30.999999
3.100000 14.500000 -30.999999
3.200000 14.500000 -30.999999
2.900000 14.800000 -31.100000
2.900000 14.700000 -30.999999
3.200000 14.700000 -30.999999
3.100000 14.800000 -30.999999
3.200000 14.800000 -30.999999
2.900000 14.500000 -30.900001
3.000000 14.500000 -30.900001
3.100000 14.600000 -30.900001
3.200000 14.600000 -30.900001
3.200000 14.500000 -30.800000
3.000000 14.700000 -30.900001
3.000000 14.800000 -30.900001
3.100000 14.700000 -30.900001
2.500000 14.900000 -31.100000
2.500000 15.000000 -30.999999
2.600000 15.000000 -30.999999
2.800000 14.900000 -31.100000
2.700000 15.000000 -31.100000
2.800000 15.000000 -31.100000
2.700000 14.900000 -30.999999
2.800000 14.900000 -30.999999
2.700000 15.000000 -30.999999
2.600000 15.100000 -31.100000
2.500000 15.200000 -31.100000
2.600000 15.200000 -31.100000
2.500000 15.100000 -30.999999
2.700000 15.100000 -31.100000
2.800000 15.200000 -31.100000
2.800000 15.100000 -30.999999
2.700000 15.200000 -30.999999
2.800000 15.200000 -30.999999
2.600000 14.900000 -30.900001
2.800000 15.000000 -30.900001
2.800000 15.100000 -30.900001
3.000000 14.900000 -30.999999
2.900000 15.000000 -30.999999
3.000000 15.000000 -30.999999
3.200000 14.900000 -31.100000
3.100000 15.000000 -31.100000
3.100000 14.900000 -30.999999
2.900000 15.100000 -31.100000
3.000000 15.100000 -31.100000
2.900000 15.200000 -31.100000
2.900000 15.100000 -30.999999
3.000000 15.200000 -30.999999
3.100000 15.100000 -31.100000
3.200000 15.200000 -31.100000
3.200000 15.100000 -30.999999
3.100000 15.200000 -30.999999
3.200000 15.200000 -30.999999
2.900000 14.900000 -30.900001
3.200000 15.000000 -30.900001
3.100000 15.100000 -30.900001
1.800000 15.300000 -31.100000
1.800000 15.400000 -31.100000
1.800000 15.300000 -30.999999
1.700000 15.400000 -30.999999
1.900000 15.300000 -31.100000
2.000000 15.400000 -31.100000
1.900000 15.400000 -30.999999
2.000000 15.400000 -30.999999
1.700000 15.500000 -31.100000
1.700000 15.600000 -31.100000
1.800000 15.600000 -31.100000
1.900000 15.500000 -31.100000
2.000000 15.500000 -31.100000
1.900000 15.600000 -31.100000
2.200000 15.300000 -31.100000
2.100000 15.400000 -31.100000
2.100000 15.300000 -30.999999
2.200000 15.400000 -30.999999
2.400000 15.300000 -31.100000
2.300000 15.400000 -31.100000
2.400000 15.400000 -31.100000
2.300000 15.300000 -30.999999
2.200000 15.500000 -31.100000
2.200000 15.600000 -31.100000
2.200000 15.500000 -30.999999
2.300000 15.500000 -31.100000
2.400000 15.600000 -31.100000
2.400000 15.600000 -30.999999
1.800000 15.700000 -31.100000
1.800000 15.800000 -31.100000
1.800000 15.700000 -30.999999
2.000000 15.800000 -31.100000
1.700000 15.900000 -31.100000
1.800000 15.900000 -31.100000
2.000000 15.900000 -31.100000
1.900000 16.000000 -31.100000
2.100000 15.700000 -31.100000
2.200000 15.700000 -31.100000
2.100000 15.800000 -31.100000
2.400000 15.700000 -31.100000
2.300000 15.800000 -31.100000
2.300000 15.700000 -30.999999
2.200000 15.900000 -31.100000
2.200000 16.000000 -31.100000
2.500000 15.300000 -31.100000
2.600000 15.300000 -30.999999
2.600000 15.400000 -30.999999
2.800000 15.300000 -31.100000
2.700000 15.400000 -31.100000
2.800000 15.400000 -31.100000
2.700000 15.300000 -30.999999
2.600000 15.500000 -31.100000
2.500000 15.600000 -31.100000
2.600000 15.600000 -31.100000
2.500000 15.500000 -30.999999
2.700000 15.500000 -31.100000
2.800000 15.600000 -31.100000
2.800000 15.500000 -30.999999
2.800000 15.600000 -30.999999
3.000000 15.400000 -31.100000
2.900000 15.300000 -30.999999
3.000000 15.300000 -30.999999
2.900000 15.400000 -30.999999
3.100000 15.300000 -31.100000
3.200000 15.300000 -31.100000
3.100000 15.400000 -31.100000
2.900000 15.500000 -31.100000
3.000000 15.500000 -31.100000
2.900000 15.600000 -31.100000
3.200000 15.600000 -31.100000
3.200000 15.500000 -30.999999
3.100000 15.600000 -30.999999
2.600000 15.800000 -31.100000
2.700000 15.700000 -31.100000
2.800000 15.700000 -31.100000
2.700000 15.800000 -31.100000
2.700000 15.700000 -30.999999
2.600000 15.900000 -31.100000
2.500000 16.000000 -31.100000
2.500000 15.900000 -30.999999
2.800000 15.900000 -31.100000
2.800000 16.000000 -31.100000
2.900000 15.800000 -31.100000
3.000000 15.800000 -31.100000
3.100000 15.700000 -31.100000
3.200000 15.700000 -31.100000
3.100000 15.800000 -31.100000
2.900000 15.900000 -31.100000
3.300000 12.900000 -30.900001
3.300000 13.000000 -30.800000
3.400000 13.000000 -30.800000
3.500000 12.900000 -30.800000
3.600000 12.900000 -30.800000
3.500000 13.000000 -30.800000
3.300000 13.100000 -30.800000
3.600000 13.100000 -30.800000
3.500000 13.200000 -30.800000
3.600000 13.200000 -30.800000
3.700000 13.000000 -30.800000
3.800000 13.000000 -30.800000
3.900000 12.900000 -30.800000
4.000000 12.900000 -30.800000
3.900000 13.000000 -30.800000
3.700000 13.100000 -30.800000
4.000000 13.100000 -30.800000
3.900000 13.200000 -30.800000
4.000000 13.200000 -30.800000
3.400000 13.400000 -30.900001
3.400000 13.300000 -30.800000
3.300000 13.400000 -30.800000
3.500000 13.300000 -30.800000
3.600000 13.400000 -30.800000
3.300000 13.500000 -30.900001
3.400000 13.500000 -30.800000
3.300000 13.600000 -30.800000
3.400000 13.600000 -30.800000
3.600000 13.500000 -30.900001
3.500000 13.600000 -30.900001
3.600000 13.600000 -30.900001
3.500000 13.500000 -30.800000
3.600000 13.500000 -30.800000
3.800000 13.300000 -30.800000
3.700000 13.400000 -30.800000
3.800000 13.400000 -30.800000
3.900000 13.300000 -30.800000
3.700000 13.500000 -30.900001
3.800000 13.500000 -30.900001
3.800000 13.500000 -30.800000
3.700000 13.600000 -30.800000
3.800000 13.600000 -30.800000
3.900000 13.600000 -30.900001
4.000000 13.600000 -30.900001
3.900000 13.500000 -30.800000
4.000000 13.500000 -30.800000
3.400000 12.900000 -30.700000
3.300000 13.000000 -30.700000
3.500000 13.000000 -30.700000
3.600000 13.000000 -30.700000
3.400000 13.100000 -30.700000
3.300000 13.200000 -30.700000
3.400000 13.200000 -30.700000
3.500000 13.100000 -30.700000
3.700000 12.900000 -30.700000
3.800000 12.900000 -30.700000
3.700000 13.000000 -30.700000
3.900000 13.000000 -30.700000
4.000000 13.000000 -30.700000
3.800000 13.100000 -30.700000
3.700000 13.200000 -30.700000
3.800000 13.200000 -30.700000
3.900000 13.100000 -30.700000
3.300000 13.300000 -30.700000
3.600000 13.300000 -30.700000
3.500000 13.400000 -30.700000
3.400000 13.500000 -30.700000
3.600000 13.600000 -30.700000
3.700000 13.300000 -30.700000
4.000000 13.300000 -30.700000
3.900000 13.400000 -30.700000
4.000000 13.400000 -30.700000
3.700000 13.500000 -30.700000
3.800000 13.500000 -30.700000
4.100000 13.000000 -30.800000
4.200000 13.000000 -30.800000
4.400000 12.900000 -30.800000
4.300000 13.000000 -30.800000
4.100000 13.100000 -30.800000
4.400000 13.100000 -30.800000
4.300000 13.200000 -30.800000
4.400000 13.200000 -30.800000
4.500000 12.900000 -30.800000
4.600000 13.000000 -30.800000
4.800000 12.900000 -30.800000
4.700000 13.000000 -30.800000
4.800000 13.000000 -30.800000
4.500000 13.200000 -30.900001
4.500000 13.100000 -30.800000
4.600000 13.100000 -30.800000
4.800000 13.200000 -30.800000
4.200000 13.300000 -30.800000
4.100000 13.400000 -30.800000
4.200000 13.400000 -30.800000
4.400000 13.300000 -30.900001
4.300000 13.400000 -30.900001
4.300000 13.300000 -30.800000
4.100000 13.500000 -30.900001
4.200000 13.500000 -30.900001
4.100000 13.500000 -30.800000
4.200000 13.600000 -30.800000
4.400000 13.600000 -30.900001
4.400000 13.500000 -30.800000
4.300000 13.600000 -30.800000
4.400000 13.600000 -30.800000
4.600000 13.300000 -30.800000
4.500000 13.400000 -30.800000
4.600000 13.400000 -30.800000
4.700000 13.300000 -30.800000
4.800000 13.300000 -30.800000
4.700000 13.400000 -30.800000
4.600000 13.500000 -30.900001
4.500000 13.600000 -30.900001
4.500000 13.500000 -30.800000
4.600000 13.600000 -30.800000
4.700000 13.600000 -30.800000
4.800000 13.600000 -30.800000
4.100000 12.900000 -30.700000
4.200000 12.900000 -30.700000
4.100000 13.000000 -30.700000
4.300000 12.900000 -30.700000
4.300000 13.000000 -30.700000
4.400000 13.000000 -30.700000
4.200000 13.100000 -30.700000
4.100000 13.200000 -30.700000
4.200000 13.200000 -30.700000
4.300000 13.100000 -30.700000
4.600000 12.900000 -30.700000
4.500000 13.000000 -30.700000
4.600000 13.000000 -30.700000
4.700000 12.900000 -30.700000
4.800000 13.000000 -30.700000
4.600000 13.200000 -30.700000
4.700000 13.100000 -30.700000
4.800000 13.100000 -30.700000
4.700000 13.200000 -30.700000
4.100000 13.300000 -30.700000
4.400000 13.400000 -30.700000
4.100000 13.600000 -30.700000
4.200000 13.600000 -30.700000
4.300000 13.500000 -30.700000
4.500000 13.300000 -30.700000
4.800000 13.400000 -30.700000
4.500000 13.600000 -30.700000
4.600000 13.600000 -30.700000
4.700000 13.500000 -30.700000
4.800000 13.500000 -30.700000
3.400000 13.700000 -30.900001
3.300000 13.800000 -30.900001
3.400000 13.800000 -30.900001
3.300000 13.700000 -30.800000
3.600000 13.700000 -30.800000
3.500000 13.800000 -30.800000
3.600000 13.800000 -30.800000
3.300000 13.900000 -30.900001
3.400000 14.000000 -30.900001
3.400000 13.900000 -30.800000
3.300000 14.000000 -30.800000
3.400000 14.000000 -30.800000
3.600000 13.900000 -30.900001
3.500000 14.000000 -30.900001
3.600000 14.000000 -30.900001
3.500000 13.900000 -30.800000
3.800000 13.700000 -30.900001
3.700000 13.800000 -30.900001
3.800000 13.800000 -30.900001
3.700000 13.700000 -30.800000
3.900000 13.700000 -30.900001
4.000000 13.700000 -30.800000
3.900000 13.800000 -30.800000
4.000000 13.800000 -30.800000
3.700000 13.900000 -30.900001
3.800000 13.900000 -30.800000
3.700000 14.000000 -30.800000
3.800000 14.000000 -30.800000
4.000000 13.900000 -30.900001
3.900000 14.000000 -30.900001
4.000000 14.000000 -30.900001
3.900000 13.900000 -30.800000
3.400000 14.200000 -30.999999
3.300000 14.300000 -30.999999
3.600000 14.400000 -30.999999
3.300000 14.100000 -30.900001
3.400000 14.100000 -30.900001
3.300000 14.200000 -30.900001
3.600000 14.200000 -30.900001
3.600000 14.100000 -30.800000
3.500000 14.200000 -30.800000
3.400000 14.400000 -30.900001
3.400000 14.300000 -30.800000
3.300000 14.400000 -30.800000
3.500000 14.300000 -30.900001
3.600000 14.300000 -30.900001
3.500000 14.400000 -30.900001
3.800000 14.200000 -30.999999
3.700000 14.300000 -30.999999
4.000000 14.400000 -30.999999
3.700000 14.100000 -30.900001
3.800000 14.100000 -30.900001
3.700000 14.200000 -30.900001
3.700000 14.100000 -30.800000
3.800000 14.200000 -30.800000
3.900000 14.100000 -30.900001
4.000000 14.200000 -30.900001
3.900000 14.100000 -30.800000
4.000000 14.100000 -30.800000
3.900000 14.200000 -30.800000
3.800000 14.400000 -30.900001
3.800000 14.300000 -30.800000
3.700000 14.400000 -30.800000
3.900000 14.300000 -30.900001
4.000000 14.300000 -30.900001
3.900000 14.400000 -30.900001
4.200000 13.800000 -30.900001
4.100000 13.700000 -30.800000
4.200000 13.700000 -30.800000
4.100000 13.800000 -30.800000
4.300000 13.700000 -30.900001
4.400000 13.800000 -30.800000
4.100000 13.900000 -30.900001
4.100000 14.000000 -30.800000
4.200000 14.000000 -30.800000
4.400000 14.000000 -30.900001
4.300000 13.900000 -30.800000
4.400000 13.900000 -30.800000
4.300000 14.000000 -30.800000
4.600000 14.000000 -30.999999
4.600000 13.800000 -30.900001
4.500000 13.700000 -30.800000
4.600000 13.700000 -30.800000
4.500000 13.800000 -30.800000
4.700000 13.700000 -30.900001
4.800000 13.700000 -30.900001
4.700000 13.800000 -30.900001
4.500000 13.900000 -30.900001
4.600000 13.900000 -30.900001
4.500000 14.000000 -30.900001
4.700000 13.900000 -30.800000
4.800000 13.900000 -30.800000
4.700000 14.000000 -30.800000
4.800000 14.000000 -30.800000
4.400000 14.100000 -30.999999
4.300000 14.200000 -30.999999
4.100000 14.300000 -30.999999
4.200000 14.300000 -30.999999
4.100000 14.400000 -30.999999
4.100000 14.100000 -30.900001
4.200000 14.100000 -30.900001
4.100000 14.200000 -30.900001
4.200000 14.200000 -30.900001
4.100000 14.100000 -30.800000
4.200000 14.100000 -30.800000
4.300000 14.100000 -30.900001
4.400000 14.100000 -30.900001
4.300000 14.200000 -30.800000
4.400000 14.200000 -30.800000
4.200000 14.300000 -30.800000
4.100000 14.400000 -30.800000
4.200000 14.400000 -30.800000
4.400000 14.300000 -30.900001
4.300000 14.400000 -30.900001
4.400000 14.400000 -30.900001
4.300000 14.300000 -30.800000
4.500000 14.100000 -30.999999
4.700000 14.200000 -30.999999
4.600000 14.300000 -30.999999
4.500000 14.400000 -30.999999
4.600000 14.400000 -30.999999
4.600000 14.100000 -30.900001
4.500000 14.200000 -30.900001
4.600000 14.200000 -30.900001
4.500000 14.100000 -30.800000
4.600000 14.100000 -30.800000
4.700000 14.100000 -30.900001
4.800000 14.100000 -30.900001
4.500000 14.300000 -30.900001
4.400000 13.700000 -30.700000
4.300000 13.800000 -30.700000
4.200000 13.900000 -30.700000
4.800000 13.800000 -30.700000
4.900000 12.900000 -30.800000
5.100000 13.000000 -30.800000
5.200000 13.000000 -30.800000
4.900000 13.100000 -30.800000
4.900000 13.200000 -30.800000
5.100000 13.100000 -30.800000
5.200000 13.100000 -30.800000
5.400000 12.900000 -30.800000
5.300000 13.000000 -30.800000
5.400000 13.000000 -30.800000
5.500000 12.900000 -30.800000
5.600000 12.900000 -30.800000
5.400000 13.200000 -30.800000
5.500000 13.100000 -30.800000
5.600000 13.100000 -30.800000
5.500000 13.200000 -30.800000
5.600000 13.200000 -30.800000
5.200000 13.300000 -30.800000
5.100000 13.400000 -30.800000
5.200000 13.400000 -30.800000
4.900000 13.600000 -30.900001
4.900000 13.500000 -30.800000
4.900000 13.600000 -30.800000
5.200000 13.500000 -30.900001
5.100000 13.600000 -30.900001
5.100000 13.500000 -30.800000
5.200000 13.600000 -30.800000
5.300000 13.300000 -30.800000
5.400000 13.300000 -30.800000
5.300000 13.400000 -30.800000
5.600000 13.400000 -30.800000
5.300000 13.600000 -30.800000
5.400000 13.600000 -30.800000
5.500000 13.600000 -30.900001
5.600000 13.600000 -30.900001
5.500000 13.500000 -30.800000
5.600000 13.500000 -30.800000
5.500000 13.600000 -30.800000
4.900000 13.000000 -30.700000
5.100000 12.900000 -30.700000
5.200000 12.900000 -30.700000
5.100000 13.000000 -30.700000
5.200000 13.000000 -30.700000
5.200000 13.200000 -30.700000
5.300000 12.900000 -30.700000
5.400000 13.000000 -30.700000
5.500000 13.000000 -30.700000
5.600000 13.000000 -30.700000
5.300000 13.100000 -30.700000
5.400000 13.100000 -30.700000
5.300000 13.200000 -30.700000
4.900000 13.300000 -30.700000
4.900000 13.400000 -30.700000
5.100000 13.300000 -30.700000
5.100000 13.600000 -30.700000
5.200000 13.600000 -30.700000
5.400000 13.400000 -30.700000
5.500000 13.300000 -30.700000
5.600000 13.300000 -30.700000
5.500000 13.400000 -30.700000
5.300000 13.500000 -30.700000
5.400000 13.500000 -30.700000
5.300000 13.600000 -30.700000
5.700000 13.000000 -30.800000
5.800000 13.000000 -30.800000
5.900000 13.000000 -30.800000
5.800000 13.100000 -30.900001
5.700000 13.100000 -30.800000
5.900000 13.200000 -30.800000
6.100000 13.000000 -30.900001
6.200000 13.000000 -30.900001
6.100000 12.900000 -30.800000
6.200000 12.900000 -30.800000
6.100000 13.000000 -30.800000
6.400000 12.900000 -30.900001
6.300000 12.900000 -30.800000
6.300000 13.000000 -30.800000
6.400000 13.000000 -30.800000
6.200000 13.100000 -30.800000
6.100000 13.200000 -30.800000
6.200000 13.200000 -30.800000
6.300000 13.200000 -30.900001
6.400000 13.200000 -30.900001
6.300000 13.100000 -30.800000
6.400000 13.100000 -30.800000
5.800000 13.300000 -30.800000
5.700000 13.400000 -30.800000
5.800000 13.400000 -30.800000
5.900000 13.400000 -30.900001
5.900000 13.300000 -30.800000
5.800000 13.500000 -30.900001
5.700000 13.600000 -30.900001
5.700000 13.500000 -30.800000
5.900000 13.500000 -30.900001
6.200000 13.300000 -30.900001
6.100000 13.400000 -30.900001
6.200000 13.400000 -30.900001
6.100000 13.300000 -30.800000
6.300000 13.300000 -30.900001
6.100000 13.500000 -30.900001
5.700000 12.900000 -30.700000
5.800000 12.900000 -30.700000
5.700000 13.000000 -30.700000
5.900000 12.900000 -30.700000
5.700000 13.200000 -30.700000
5.800000 13.200000 -30.700000
5.900000 13.100000 -30.700000
6.200000 13.000000 -30.700000
6.300000 13.000000 -30.700000
6.400000 13.000000 -30.700000
6.100000 13.100000 -30.700000
5.700000 13.300000 -30.700000
4.900000 13.800000 -30.800000
5.200000 13.800000 -30.900001
5.100000 13.700000 -30.800000
5.200000 13.700000 -30.800000
5.100000 13.800000 -30.800000
4.900000 14.000000 -30.900001
4.900000 13.900000 -30.800000
5.100000 13.900000 -30.900001
5.100000 14.000000 -30.900001
5.400000 13.700000 -30.900001
5.300000 13.800000 -30.900001
5.300000 13.700000 -30.800000
4.900000 14.100000 -30.900001
4.900000 13.700000 -30.700000
3.300000 15.300000 -31.200000
3.600000 15.400000 -31.200000
3.400000 15.600000 -31.200000
3.500000 15.500000 -31.200000
3.600000 15.500000 -31.200000
3.500000 15.600000 -31.200000
3.700000 15.300000 -31.200000
3.300000 15.800000 -31.300000
3.400000 15.800000 -31.300000
3.300000 15.700000 -31.200000
3.400000 15.700000 -31.200000
3.300000 15.800000 -31.200000
3.300000 14.600000 -30.999999
3.400000 14.600000 -30.999999
3.500000 14.500000 -30.999999
3.500000 14.600000 -30.999999
3.300000 14.700000 -30.999999
3.600000 14.700000 -30.999999
3.500000 14.800000 -30.999999
3.600000 14.800000 -30.999999
3.300000 14.500000 -30.900001
3.400000 14.500000 -30.900001
3.300000 14.600000 -30.900001
3.500000 14.600000 -30.900001
3.600000 14.600000 -30.900001
3.600000 14.500000 -30.800000
3.400000 14.700000 -30.900001
3.300000 14.800000 -30.900001
3.400000 14.800000 -30.900001
3.500000 14.700000 -30.900001
3.700000 14.600000 -30.999999
3.800000 14.600000 -30.999999
3.900000 14.500000 -30.999999
4.000000 14.500000 -30.999999
3.900000 14.600000 -30.999999
3.800000 14.700000 -31.100000
3.700000 14.800000 -31.100000
3.700000 14.700000 -30.999999
4.000000 14.700000 -30.999999
3.900000 14.800000 -30.999999
4.000000 14.800000 -30.999999
3.700000 14.500000 -30.900001
3.800000 14.500000 -30.900001
3.700000 14.600000 -30.900001
4.000000 14.600000 -30.900001
4.000000 14.500000 -30.800000
3.800000 14.700000 -30.900001
3.800000 14.800000 -30.900001
3.900000 14.700000 -30.900001
4.000000 14.700000 -30.900001
3.400000 14.900000 -30.999999
3.300000 15.000000 -30.999999
3.400000 15.000000 -30.999999
3.600000 14.900000 -31.100000
3.500000 15.000000 -31.100000
3.600000 15.000000 -31.100000
3.500000 14.900000 -30.999999
3.400000 15.100000 -31.100000
3.300000 15.200000 -31.100000
3.400000 15.200000 -31.100000
3.300000 15.100000 -30.999999
3.400000 15.200000 -30.999999
3.500000 15.100000 -31.100000
3.600000 15.200000 -31.100000
3.600000 15.100000 -30.999999
3.500000 15.200000 -30.999999
3.600000 15.200000 -30.999999
3.300000 14.900000 -30.900001
3.600000 15.000000 -30.900001
3.800000 14.900000 -30.999999
3.700000 15.000000 -30.999999
3.800000 15.000000 -30.999999
4.000000 14.900000 -31.100000
3.900000 15.000000 -31.100000
3.900000 14.900000 -30.999999
3.800000 15.100000 -31.100000
3.700000 15.200000 -31.100000
3.800000 15.200000 -31.100000
3.700000 15.100000 -30.999999
3.900000 15.100000 -31.100000
3.700000 14.900000 -30.900001
4.400000 14.500000 -30.999999
4.300000 14.600000 -30.999999
4.100000 14.700000 -30.999999
4.200000 14.700000 -30.999999
4.100000 14.800000 -30.999999
4.100000 14.500000 -30.900001
4.200000 14.500000 -30.900001
4.100000 14.600000 -30.900001
4.200000 14.600000 -30.900001
4.300000 14.500000 -30.900001
4.100000 14.700000 -30.900001
3.400000 15.400000 -31.100000
3.400000 15.300000 -30.999999
3.300000 15.400000 -30.999999
3.500000 15.300000 -31.100000
3.600000 15.300000 -31.100000
3.500000 15.400000 -31.100000
3.300000 15.500000 -31.100000
3.400000 15.500000 -31.100000
3.300000 15.600000 -31.100000
0.400000 16.099999 -31.200000
0.500000 16.099999 -31.300000
0.600000 16.099999 -31.300000
0.600000 16.200000 -31.300000
0.600000 16.099999 -31.200000
0.500000 16.200000 -31.200000
0.600000 16.200000 -31.200000
0.700000 16.200000 -31.300000
0.700000 16.099999 -31.200000
0.800000 16.099999 -31.200000
0.800000 16.200000 -31.200000
0.600000 16.300000 -31.300000
0.600000 16.300000 -31.200000
0.800000 16.300000 -31.300000
0.700000 16.300000 -31.200000
0.700000 16.400000 -31.200000
0.700000 16.500001 -31.300000
0.700000 16.500001 -31.200000
0.800000 16.500001 -31.200000
0.800000 16.599999 -31.200000
0.900000 16.099999 -31.300000
1.000000 16.200000 -31.300000
0.900000 16.099999 -31.200000
1.000000 16.099999 -31.200000
1.000000 16.200000 -31.200000
1.200000 16.200000 -31.300000
1.100000 16.099999 -31.200000
1.200000 16.099999 -31.200000
1.100000 16.200000 -31.200000
1.000000 16.300000 -31.300000
0.900000 16.400000 -31.300000
0.900000 16.300000 -31.200000
1.000000 16.300000 -31.200000
0.900000 16.400000 -31.200000
1.000000 16.400000 -31.200000
1.100000 16.300000 -31.300000
1.100000 16.400000 -31.300000
1.100000 16.300000 -31.200000
1.100000 16.400000 -31.200000
1.200000 16.400000 -31.200000
1.300000 16.099999 -31.300000
1.400000 16.200000 -31.300000
1.400000 16.099999 -31.200000
1.300000 16.200000 -31.200000
1.400000 16.200000 -31.200000
1.500000 16.200000 -31.300000
1.500000 16.099999 -31.200000
1.600000 16.099999 -31.200000
1.600000 16.200000 -31.200000
1.300000 16.300000 -31.300000
1.400000 16.300000 -31.300000
1.300000 16.400000 -31.300000
1.300000 16.300000 -31.200000
1.300000 16.400000 -31.200000
1.400000 16.400000 -31.200000
1.600000 16.300000 -31.300000
1.500000 16.400000 -31.300000
1.600000 16.400000 -31.300000
1.500000 16.300000 -31.200000
1.500000 16.400000 -31.200000
1.000000 16.700000 -31.400001
1.200000 16.700000 -31.400001
1.100000 16.800000 -31.400001
0.900000 16.500001 -31.300000
1.000000 16.500001 -31.300000
0.900000 16.599999 -31.300000
1.000000 16.599999 -31.300000
0.900000 16.500001 -31.200000
1.000000 16.500001 -31.200000
0.900000 16.599999 -31.200000
1.000000 16.599999 -31.200000
1.100000 16.500001 -31.300000
1.200000 16.599999 -31.300000
1.200000 16.500001 -31.200000
1.100000 16.599999 -31.200000
1.000000 16.700000 -31.300000
0.900000 16.700000 -31.200000
1.000000 16.800000 -31.200000
1.100000 16.700000 -31.300000
1.200000 16.700000 -31.300000
1.100000 16.800000 -31.300000
1.100000 16.700000 -31.200000
1.400000 16.800000 -31.400001
1.600000 16.800000 -31.400001
1.300000 16.500001 -31.300000
1.300000 16.599999 -31.300000
1.400000 16.599999 -31.300000
1.400000 16.500001 -31.200000
1.300000 16.599999 -31.200000
1.500000 16.500001 -31.300000
1.500000 16.599999 -31.300000
1.600000 16.599999 -31.300000
1.600000 16.500001 -31.200000
1.500000 16.599999 -31.200000
1.400000 16.700000 -31.300000
1.300000 16.800000 -31.300000
1.300000 16.700000 -31.200000
1.300000 16.800000 -31.200000
1.600000 16.700000 -31.300000
1.500000 16.800000 -31.300000
1.500000 16.700000 -31.200000
1.500000 16.800000 -31.200000
1.200000 16.900000 -31.300000
1.200000 16.900000 -31.200000
1.300000 16.900000 -31.400001
1.600000 16.900000 -31.400001
1.500000 17.000001 -31.400001
1.300000 16.900000 -31.300000
1.400000 17.000001 -31.300000
1.400000 16.900000 -31.200000
1.300000 17.000001 -31.200000
1.400000 17.000001 -31.200000
1.500000 16.900000 -31.300000
1.500000 17.000001 -31.300000
1.600000 17.000001 -31.200000
1.600000 17.099999 -31.300000
1.500000 17.200000 -31.300000
1.600000 17.200000 -31.300000
0.400000 16.099999 -31.100000
0.500000 16.099999 -31.100000
0.600000 16.099999 -31.100000
0.500000 16.200000 -31.100000
0.600000 16.200000 -31.100000
0.700000 16.099999 -31.100000
0.800000 16.099999 -31.100000
0.700000 16.200000 -31.100000
0.600000 16.300000 -31.100000
0.700000 16.300000 -31.100000
0.800000 16.400000 -31.100000
0.600000 16.500001 -31.100000
0.700000 16.599999 -31.100000
1.000000 16.099999 -31.100000
0.900000 16.200000 -31.100000
1.100000 16.099999 -31.100000
1.100000 16.200000 -31.100000
0.900000 16.300000 -31.100000
1.000000 16.300000 -31.100000
1.200000 16.300000 -31.100000
1.300000 16.099999 -31.100000
1.300000 16.200000 -31.100000
1.500000 16.099999 -31.100000
1.500000 16.200000 -31.100000
1.500000 16.300000 -31.100000
1.000000 16.500001 -31.100000
1.100000 16.500001 -31.100000
1.300000 16.500001 -31.100000
1.900000 16.400000 -31.400001
1.800000 16.099999 -31.300000
1.700000 16.200000 -31.300000
1.700000 16.099999 -31.200000
1.800000 16.200000 -31.200000
2.000000 16.099999 -31.300000
1.900000 16.200000 -31.300000
2.000000 16.200000 -31.300000
1.900000 16.099999 -31.200000
1.800000 16.300000 -31.300000
1.800000 16.400000 -31.300000
1.800000 16.300000 -31.200000
1.700000 16.400000 -31.200000
1.800000 16.400000 -31.200000
1.900000 16.300000 -31.300000
2.000000 16.300000 -31.200000
2.000000 16.400000 -31.200000
2.200000 16.200000 -31.300000
2.200000 16.099999 -31.200000
2.100000 16.200000 -31.200000
2.200000 16.200000 -31.200000
2.300000 16.099999 -31.300000
2.300000 16.200000 -31.300000
2.200000 16.300000 -31.300000
2.100000 16.400000 -31.300000
2.200000 16.400000 -31.300000
2.100000 16.300000 -31.200000
2.200000 16.400000 -31.200000
2.400000 16.400000 -31.300000
2.300000 16.300000 -31.200000
2.400000 16.300000 -31.200000
2.300000 16.400000 -31.200000
1.800000 16.500001 -31.400001
1.800000 16.599999 -31.400001
1.700000 16.700000 -31.400001
2.000000 16.700000 -31.400001
1.900000 16.800000 -31.400001
1.700000 16.500001 -31.300000
1.800000 16.500001 -31.300000
1.700000 16.599999 -31.300000
1.700000 16.500001 -31.200000
1.800000 16.599999 -31.200000
2.000000 16.500001 -31.300000
2.000000 16.599999 -31.300000
1.900000 16.500001 -31.200000
1.900000 16.599999 -31.200000
1.800000 16.700000 -31.300000
1.800000 16.800000 -31.300000
1.800000 16.700000 -31.200000
1.700000 16.800000 -31.200000
1.900000 16.700000 -31.300000
2.000000 16.800000 -31.200000
2.200000 16.500001 -31.400001
2.100000 16.599999 -31.400001
2.400000 16.599999 -31.400001
2.200000 16.800000 -31.400001
2.300000 16.800000 -31.499999
2.300000 16.700000 -31.400001
2.400000 16.700000 -31.400001
2.300000 16.800000 -31.400001
2.100000 16.500001 -31.300000
2.200000 16.599999 -31.300000
2.200000 16.500001 -31.200000
2.200000 16.599999 -31.200000
2.300000 16.500001 -31.300000
2.400000 16.500001 -31.300000
2.300000 16.599999 -31.300000
2.200000 16.700000 -31.300000
2.100000 16.800000 -31.300000
2.200000 16.800000 -31.300000
2.100000 16.700000 -31.200000
2.100000 16.800000 -31.200000
2.400000 16.800000 -31.300000
2.400000 16.700000 -31.200000
2.600000 16.300000 -31.400001
2.600000 16.200000 -31.300000
2.600000 16.099999 -31.200000
2.500000 16.200000 -31.200000
2.700000 16.099999 -31.300000
2.700000 16.200000 -31.300000
2.800000 16.099999 -31.200000
2.800000 16.200000 -31.200000
2.500000 16.300000 -31.300000
2.600000 16.300000 -31.300000
2.500000 16.400000 -31.300000
2.500000 16.300000 -31.200000
2.600000 16.400000 -31.200000
2.800000 16.300000 -31.300000
2.800000 16.400000 -31.300000
2.800000 16.300000 -31.200000
2.700000 16.400000 -31.200000
2.800000 16.400000 -31.200000
3.000000 16.300000 -31.400001
2.900000 16.400000 -31.400001
3.000000 16.099999 -31.300000
2.900000 16.200000 -31.300000
3.000000 16.200000 -31.300000
2.900000 16.099999 -31.200000
3.100000 16.099999 -31.300000
2.900000 16.300000 -31.300000
2.500000 16.500001 -31.400001
2.800000 16.500001 -31.400001
2.800000 16.599999 -31.400001
2.600000 16.800000 -31.400001
2.700000 16.700000 -31.400001
2.800000 16.700000 -31.400001
2.700000 16.800000 -31.400001
2.600000 16.599999 -31.300000
2.500000 16.500001 -31.200000
2.600000 16.500001 -31.200000
2.500000 16.599999 -31.200000
2.700000 16.500001 -31.300000
2.800000 16.500001 -31.300000
2.700000 16.599999 -31.300000
2.500000 16.700000 -31.300000
2.600000 16.700000 -31.300000
2.500000 16.800000 -31.300000
2.400000 17.300000 -31.600000
1.800000 16.900000 -31.400001
1.800000 17.000001 -31.400001
1.900000 16.900000 -31.400001
1.800000 17.099999 -31.499999
1.800000 17.200000 -31.499999
1.700000 17.099999 -31.400001
1.800000 17.099999 -31.400001
1.700000 17.200000 -31.400001
2.000000 17.099999 -31.400001
1.900000 17.200000 -31.400001
2.000000 17.200000 -31.400001
1.700000 16.900000 -31.300000
1.800000 16.900000 -31.300000
1.700000 17.000001 -31.300000
2.000000 16.900000 -31.300000
1.900000 17.000001 -31.300000
2.000000 17.000001 -31.300000
1.800000 17.099999 -31.300000
1.800000 17.200000 -31.300000
1.900000 17.099999 -31.300000
2.200000 16.900000 -31.499999
2.200000 17.000001 -31.499999
2.200000 16.900000 -31.400001
2.100000 17.000001 -31.400001
2.400000 16.900000 -31.400001
2.300000 17.000001 -31.400001
2.400000 17.000001 -31.400001
2.200000 17.099999 -31.499999
2.100000 17.200000 -31.499999
2.100000 17.099999 -31.400001
2.200000 17.200000 -31.400001
2.400000 17.099999 -31.499999
2.300000 17.200000 -31.499999
2.400000 17.200000 -31.499999
2.300000 17.099999 -31.400001
2.100000 16.900000 -31.300000
2.200000 17.000001 -31.300000
2.300000 16.900000 -31.300000
2.400000 16.900000 -31.300000
2.200000 17.099999 -31.300000
2.200000 17.200000 -31.300000
1.800000 17.300000 -31.400001
2.000000 17.300000 -31.499999
1.900000 17.300000 -31.400001
1.800000 17.300000 -31.300000
2.200000 17.400000 -31.499999
2.200000 17.300000 -31.400001
2.100000 17.400000 -31.400001
2.200000 17.400000 -31.400001
2.300000 17.300000 -31.499999
2.300000 17.400000 -31.499999
2.100000 17.300000 -31.300000
2.600000 17.099999 -31.600000
2.500000 17.200000 -31.600000
2.600000 16.900000 -31.499999
2.500000 17.000001 -31.499999
2.600000 17.000001 -31.499999
2.500000 16.900000 -31.400001
2.600000 16.900000 -31.400001
2.700000 16.900000 -31.499999
2.500000 17.099999 -31.499999
1.800000 16.099999 -31.100000
1.800000 16.200000 -31.100000
1.700000 16.300000 -31.100000
1.900000 16.400000 -31.100000
2.200000 16.099999 -31.100000
2.100000 16.200000 -31.100000
2.400000 16.099999 -31.100000
2.400000 16.200000 -31.100000
2.200000 16.300000 -31.100000
2.300000 16.300000 -31.100000
2.500000 16.099999 -31.100000
2.800000 16.099999 -31.100000
2.700000 16.200000 -31.100000
2.800000 16.200000 -31.100000
2.600000 16.400000 -31.100000
2.700000 16.300000 -31.100000
6.500000 13.000000 -30.800000
6.600000 13.000000 -30.800000
6.800000 13.000000 -30.900001
6.800000 12.900000 -30.800000
6.800000 13.000000 -30.800000
6.500000 13.100000 -30.900001
6.600000 13.100000 -30.900001
6.500000 13.200000 -30.900001
6.800000 13.100000 -30.900001
7.100000 13.000000 -30.999999
7.200000 13.000000 -30.999999
6.900000 13.100000 -30.999999
7.000000 13.100000 -30.999999
6.900000 13.000000 -30.900001
7.000000 13.000000 -30.900001
6.900000 12.900000 -30.800000
7.000000 12.900000 -30.800000
7.100000 12.900000 -30.900001
7.200000 12.900000 -30.900001
7.100000 13.000000 -30.900001
7.200000 13.000000 -30.900001
6.500000 12.900000 -30.700000
6.600000 12.900000 -30.700000
7.400000 13.000000 -30.999999
7.600000 12.900000 -30.999999
7.500000 13.000000 -30.999999
7.600000 13.000000 -30.999999
7.400000 12.900000 -30.900001
7.500000 12.900000 -30.900001
7.800000 13.000000 -31.100000
7.700000 12.900000 -30.999999
7.800000 12.900000 -30.999999
7.700000 13.000000 -30.999999
8.000000 13.000000 -31.100000
8.000000 12.900000 -30.999999
8.100000 13.000000 -31.200000
8.200000 13.000000 -31.200000
8.300000 13.000000 -31.200000
8.600000 13.000000 -31.300000
8.600000 12.900000 -31.200000
8.500000 13.000000 -31.200000
8.600000 13.000000 -31.200000
8.700000 13.000000 -31.300000
8.800000 13.000000 -31.300000
8.700000 12.900000 -31.200000
8.800000 12.900000 -31.200000
8.700000 13.000000 -31.200000
9.600000 13.300000 -31.600000
9.200000 13.000000 -31.400001
9.100000 13.100000 -31.400001
9.200000 13.100000 -31.400001
9.000000 13.000000 -31.300000
9.000000 12.900000 -31.200000
9.200000 12.900000 -31.300000
9.100000 13.000000 -31.300000
9.200000 13.000000 -31.300000
9.100000 12.900000 -31.200000
9.400000 13.000000 -31.400001
9.500000 13.000000 -31.400001
9.600000 13.000000 -31.400001
9.400000 13.100000 -31.400001
9.500000 13.100000 -31.499999
9.600000 13.100000 -31.499999
9.500000 13.200000 -31.499999
9.600000 13.200000 -31.499999
9.400000 12.900000 -31.300000
9.400000 13.000000 -31.300000
9.500000 12.900000 -31.300000
9.600000 12.900000 -31.300000
8.100000 12.900000 -31.100000
8.200000 12.900000 -31.100000
8.100000 13.000000 -31.100000
8.200000 13.000000 -31.100000
8.300000 12.900000 -31.100000
8.500000 12.900000 -31.100000
10.000000 13.000000 -31.700000
9.900000 12.900000 -31.600000
10.000000 12.900000 -31.600000
9.900000 13.000000 -31.600000
10.000000 13.000000 -31.600000
9.900000 13.200000 -31.600000
10.000000 13.200000 -31.600000
10.300000 13.100000 -31.800000
10.400000 13.100000 -31.800000
10.400000 13.200000 -31.800000
10.100000 13.000000 -31.700000
10.100000 12.900000 -31.600000
10.100000 13.000000 -31.600000
10.300000 13.000000 -31.700000
10.400000 13.000000 -31.700000
10.300000 12.900000 -31.600000
10.400000 12.900000 -31.600000
10.100000 13.100000 -31.600000
10.100000 13.200000 -31.600000
10.300000 13.100000 -31.600000
10.300000 13.200000 -31.600000
10.400000 13.200000 -31.600000
10.000000 13.600000 -31.800000
9.700000 13.300000 -31.600000
9.700000 13.400000 -31.600000
9.900000 13.400000 -31.700000
10.000000 13.400000 -31.700000
9.900000 13.300000 -31.600000
10.000000 13.300000 -31.600000
9.900000 13.500000 -31.700000
10.000000 13.500000 -31.700000
10.100000 13.500000 -31.800000
10.100000 13.600000 -31.800000
10.300000 13.600000 -31.900001
10.400000 13.600000 -31.900001
10.300000 13.500000 -31.800000
10.400000 13.500000 -31.800000
10.300000 13.600000 -31.800000
10.400000 13.600000 -31.800000
10.100000 13.300000 -31.700000
10.100000 13.400000 -31.700000
10.300000 13.300000 -31.700000
10.400000 13.300000 -31.700000
10.300000 13.400000 -31.700000
10.400000 13.400000 -31.700000
9.700000 12.900000 -31.499999
9.700000 13.000000 -31.400001
9.900000 13.000000 -31.499999
10.000000 13.000000 -31.499999
9.900000 13.000000 -31.400001
9.700000 13.100000 -31.499999
9.700000 13.200000 -31.499999
9.900000 13.100000 -31.499999
10.000000 13.100000 -31.499999
10.800000 12.900000 -31.900001
10.800000 13.000000 -31.900001
10.700000 12.900000 -31.800000
10.700000 13.000000 -31.800000
10.800000 13.000000 -31.800000
10.500000 13.100000 -31.800000
10.500000 13.200000 -31.800000
10.700000 13.200000 -31.900001
10.800000 13.200000 -31.900001
10.700000 13.100000 -31.800000
10.800000 13.100000 -31.800000
10.500000 13.000000 -31.700000
10.500000 12.900000 -31.600000
10.700000 12.900000 -31.700000
10.700000 13.000000 -31.700000
10.800000 13.000000 -31.700000
10.900000 12.900000 -31.900001
10.900000 13.000000 -31.900001
10.900000 13.000000 -31.800000
11.100000 12.900000 -31.900001
11.200000 12.900000 -31.900001
10.900000 13.200000 -31.900001
10.900000 13.100000 -31.800000
11.100000 13.100000 -31.900001
11.100000 13.200000 -31.900001
11.200000 13.200000 -31.900001
10.500000 13.300000 -31.900001
10.500000 13.400000 -31.800000
10.700000 13.300000 -31.900001
10.800000 13.300000 -31.900001
10.700000 13.400000 -31.800000
10.800000 13.400000 -31.800000
10.500000 13.600000 -31.900001
10.500000 13.500000 -31.800000
10.700000 13.600000 -31.900001
10.800000 13.600000 -31.900001
10.700000 13.500000 -31.800000
10.800000 13.500000 -31.800000
10.500000 13.300000 -31.700000
10.900000 13.300000 -31.900001
10.900000 13.600000 -31.900001
10.400000 13.700000 -31.900001
11.300000 12.900000 -31.900001
16.000000 15.300000 -35.200000
16.000000 15.600000 -35.200000
19.000001 13.500000 -37.200000
19.200000 13.500000 -37.200000
19.200000 13.600000 -37.200000
18.700000 13.200000 -36.900001
18.700000 13.200000 -36.799998
19.000001 13.000000 -36.999999
19.200000 13.000000 -36.999999
19.000001 13.100000 -36.999999
19.200000 13.200000 -37.100002
19.200000 13.100000 -36.999999
18.900000 13.000000 -36.900001
19.000001 13.000000 -36.900001
18.900000 12.900000 -36.799998
19.000001 12.900000 -36.799998
19.200000 13.000000 -36.900001
19.200000 12.900000 -36.799998
18.900000 13.200000 -36.900001
19.000001 13.200000 -36.900001
18.900000 13.100000 -36.799998
18.900000 13.200000 -36.799998
19.000001 13.200000 -36.799998
18.599999 13.400000 -36.799998
18.700000 13.400000 -36.799998
18.599999 13.500000 -36.900001
18.700000 13.500000 -36.900001
18.700000 13.600000 -36.900001
18.900000 13.300000 -36.999999
19.000001 13.300000 -36.999999
18.900000 13.400000 -36.999999
19.000001 13.400000 -36.999999
19.200000 13.300000 -36.999999
19.200000 13.400000 -36.999999
19.000001 13.500000 -37.100002
19.200000 13.500000 -37.100002
18.900000 13.400000 -36.799998
18.900000 13.500000 -36.900001
18.900000 13.600000 -36.900001
19.000001 13.600000 -36.900001
18.400000 13.700000 -36.799998
18.400000 13.800000 -36.799998
18.300000 14.000000 -36.799998
18.400000 14.000000 -36.799998
18.400000 14.100000 -36.799998
18.400000 14.400000 -36.900001
18.300000 14.300000 -36.799998
18.400000 14.300000 -36.799998
19.200000 13.700000 -37.299998
19.200000 13.800000 -37.200000
19.000001 14.000000 -37.299998
19.000001 13.900000 -37.200000
19.200000 14.000000 -37.299998
19.200000 13.900000 -37.200000
19.200000 14.400000 -37.400001
19.000001 14.200000 -37.299998
18.900000 14.200000 -37.200000
19.000001 14.200000 -37.200000
19.200000 14.200000 -37.299998
19.200000 14.200000 -37.200000
18.900000 14.400000 -37.200000
19.000001 14.400000 -37.200000
19.200000 14.300000 -37.299998
19.200000 14.400000 -37.200000
18.700000 13.700000 -36.999999
18.700000 14.000000 -37.100002
18.700000 13.900000 -36.999999
18.599999 13.800000 -36.900001
18.599999 13.700000 -36.799998
18.700000 13.800000 -36.900001
18.700000 13.700000 -36.799998
18.599999 13.900000 -36.900001
18.599999 14.000000 -36.799998
18.700000 13.900000 -36.900001
18.900000 13.700000 -37.100002
19.000001 13.700000 -37.100002
18.900000 13.800000 -37.100002
19.000001 13.800000 -37.100002
18.900000 13.700000 -36.999999
19.000001 13.700000 -36.999999
19.200000 13.700000 -37.100002
19.200000 13.700000 -36.999999
18.900000 14.000000 -37.100002
19.000001 14.000000 -37.100002
18.900000 13.900000 -36.999999
19.000001 13.900000 -36.999999
18.900000 13.900000 -36.900001
18.599999 14.200000 -36.999999
18.700000 14.200000 -36.999999
18.700000 14.400000 -37.100002
18.700000 14.300000 -36.999999
18.599999 14.100000 -36.900001
18.599999 14.100000 -36.799998
18.700000 14.100000 -36.900001
18.700000 14.100000 -36.799998
18.599999 14.400000 -36.900001
18.599999 14.300000 -36.799998
18.700000 14.400000 -36.900001
18.900000 14.100000 -37.100002
19.000001 14.100000 -37.100002
18.900000 14.200000 -36.999999
19.200000 14.100000 -37.100002
18.900000 14.400000 -37.100002
19.000001 14.400000 -37.100002
18.900000 14.300000 -36.999999
19.000001 14.300000 -36.999999
18.900000 14.100000 -36.900001
18.300000 14.600000 -36.799998
18.400000 14.600000 -36.799998
18.400000 14.700000 -36.799998
18.400000 15.000000 -36.799998
19.200000 14.700000 -37.400001
19.000001 14.600000 -37.299998
19.000001 14.500000 -37.200000
19.200000 14.600000 -37.299998
19.200000 14.500000 -37.200000
18.900000 14.800000 -37.200000
19.000001 14.800000 -37.200000
19.200000 14.700000 -37.200000
19.200000 14.800000 -37.200000
19.000001 14.900000 -37.299998
19.200000 14.900000 -37.299998
19.000001 15.100000 -37.200000
19.200000 15.200000 -37.299998
19.200000 15.100000 -37.200000
18.599999 14.600000 -36.999999
18.700000 14.600000 -37.100002
18.700000 14.600000 -36.999999
18.599999 14.800000 -36.999999
18.700000 14.800000 -36.999999
18.599999 14.500000 -36.900001
18.599999 14.600000 -36.799998
18.700000 14.500000 -36.900001
18.599999 14.800000 -36.900001
18.599999 14.700000 -36.799998
18.700000 14.700000 -36.900001
18.700000 14.800000 -36.900001
18.900000 14.600000 -37.100002
19.000001 14.600000 -37.100002
18.900000 14.500000 -36.999999
18.900000 14.600000 -36.999999
18.900000 14.700000 -37.100002
19.000001 14.700000 -37.100002
18.900000 14.800000 -36.999999
18.700000 14.900000 -36.999999
18.700000 15.200000 -36.999999
18.599999 14.900000 -36.799998
18.599999 15.000000 -36.799998
18.700000 15.000000 -36.799998
18.599999 15.100000 -36.900001
18.700000 15.100000 -36.900001
19.000001 14.900000 -37.100002
18.900000 15.000000 -37.100002
19.000001 15.000000 -37.100002
18.900000 14.900000 -36.999999
19.200000 15.000000 -37.100002
18.900000 15.100000 -36.999999
18.900000 15.200000 -36.999999
19.000001 15.200000 -36.999999
18.900000 15.100000 -36.900001
18.400000 15.300000 -36.799998
18.400000 15.600000 -36.799998
19.000001 15.400000 -37.200000
19.200000 15.400000 -37.200000
19.200000 15.500000 -37.299998
19.200000 15.700000 -37.200000
18.700000 15.500000 -36.999999
18.599999 15.400000 -36.900001
18.599999 15.300000 -36.799998
18.700000 15.400000 -36.900001
18.700000 15.300000 -36.799998
18.599999 15.600000 -36.799998
18.700000 15.600000 -36.799998
18.900000 15.300000 -37.100002
19.000001 15.300000 -37.100002
19.000001 15.400000 -37.100002
19.200000 15.300000 -37.100002
19.000001 15.600000 -37.100002
18.900000 15.500000 -36.999999
19.000001 15.500000 -36.999999
18.900000 15.600000 -36.999999
19.000001 15.600000 -36.999999
19.200000 15.600000 -37.100002
18.900000 15.400000 -36.900001
18.599999 15.700000 -36.900001
18.700000 15.700000 -36.900001
18.700000 15.800000 -36.900001
18.599999 15.900000 -36.799998
18.700000 15.900000 -36.799998
18.700000 16.000000 -36.799998
18.900000 15.800000 -36.999999
19.000001 15.800000 -36.999999
19.200000 15.800000 -36.999999
18.900000 15.700000 -36.900001
18.900000 15.800000 -36.900001
19.000001 15.800000 -36.900001
19.200000 15.800000 -36.900001
18.900000 15.900000 -36.799998
18.900000 16.000000 -36.799998
19.000001 16.000000 -36.799998
19.200000 16.000000 -36.799998
17.599999 13.100000 -35.999999
17.599999 13.200000 -35.999999
17.400000 13.400000 -35.999999
17.599999 13.400000 -35.999999
17.599999 13.500000 -36.100002
17.599999 13.600000 -36.100002
17.599999 13.700000 -36.200000
17.599999 13.900000 -36.200000
17.599999 14.000000 -36.200000
17.400000 13.700000 -35.999999
17.400000 13.800000 -35.999999
17.599999 13.700000 -35.999999
17.599999 13.800000 -35.999999
17.400000 13.900000 -36.100002
17.400000 14.000000 -35.999999
17.599999 13.900000 -36.100002
17.599999 14.000000 -35.999999
17.599999 14.200000 -36.200000
17.599999 14.400000 -36.299998
17.599999 14.300000 -36.200000
17.400000 14.100000 -36.100002
17.400000 14.200000 -36.100002
17.300000 14.100000 -35.999999
17.400000 14.100000 -35.999999
17.599999 14.100000 -36.100002
17.599999 14.100000 -35.999999
17.400000 14.400000 -36.100002
17.300000 14.300000 -35.999999
17.400000 14.300000 -35.999999
17.300000 14.400000 -35.999999
17.599999 14.400000 -36.100002
16.400000 13.100000 -35.200000
16.700000 13.000000 -35.400001
16.700000 12.900000 -35.299998
16.700000 13.000000 -35.299998
16.599999 13.200000 -35.299998
16.599999 13.100000 -35.200000
16.700000 13.200000 -35.299998
16.700000 13.100000 -35.200000
16.400000 13.400000 -35.200000
16.400000 13.500000 -35.299998
16.700000 13.300000 -35.400001
16.700000 13.400000 -35.400001
16.599999 13.600000 -35.400001
16.700000 13.500000 -35.499999
16.700000 13.600000 -35.400001
16.599999 13.300000 -35.200000
16.599999 13.400000 -35.200000
16.700000 13.400000 -35.200000
16.599999 13.500000 -35.299998
16.599999 13.600000 -35.299998
16.700000 13.500000 -35.299998
16.700000 13.600000 -35.299998
17.000001 13.000000 -35.600002
17.099999 13.000000 -35.600002
17.099999 13.100000 -35.700000
17.400000 13.000000 -35.900001
17.400000 12.900000 -35.799998
17.400000 13.000000 -35.799998
17.599999 13.000000 -35.900001
17.599999 12.900000 -35.799998
17.599999 13.000000 -35.799998
17.300000 13.200000 -35.799998
17.400000 13.200000 -35.799998
17.599999 13.200000 -35.799998
17.300000 13.000000 -35.600002
17.400000 13.000000 -35.600002
17.300000 13.100000 -35.700000
17.400000 13.100000 -35.700000
17.099999 13.500000 -35.799998
17.000001 13.300000 -35.600002
17.099999 13.300000 -35.700000
17.099999 13.400000 -35.700000
17.099999 13.300000 -35.600002
16.900000 13.500000 -35.600002
17.000001 13.500000 -35.600002
17.000001 13.600000 -35.600002
17.099999 13.500000 -35.600002
17.099999 13.600000 -35.600002
17.400000 13.300000 -35.900001
17.400000 13.400000 -35.900001
17.599999 13.300000 -35.900001
17.599999 13.400000 -35.900001
17.300000 13.600000 -35.900001
17.400000 13.600000 -35.900001
17.300000 13.500000 -35.799998
17.400000 13.500000 -35.799998
17.300000 13.600000 -35.799998
17.599999 13.600000 -35.900001
17.300000 13.300000 -35.700000
17.300000 13.400000 -35.700000
17.400000 13.400000 -35.700000
17.300000 13.300000 -35.600002
17.000001 12.900000 -35.499999
16.900000 13.000000 -35.400001
17.000001 13.000000 -35.400001
17.099999 12.900000 -35.499999
17.000001 13.100000 -35.499999
16.900000 13.200000 -35.499999
17.000001 13.200000 -35.499999
16.900000 13.100000 -35.400001
17.099999 13.200000 -35.499999
16.900000 12.900000 -35.299998
17.000001 12.900000 -35.299998
16.900000 13.000000 -35.299998
17.000001 13.000000 -35.299998
16.900000 13.200000 -35.299998
16.900000 13.100000 -35.200000
17.300000 12.900000 -35.499999
16.900000 13.300000 -35.400001
16.900000 13.400000 -35.400001
17.000001 13.400000 -35.400001
16.900000 13.500000 -35.499999
17.000001 13.500000 -35.499999
16.900000 13.600000 -35.400001
16.700000 14.100000 -35.600002
16.400000 13.800000 -35.299998
16.300000 13.700000 -35.200000
16.400000 13.700000 -35.200000
16.400000 13.800000 -35.200000
16.300000 13.900000 -35.200000
16.400000 13.900000 -35.200000
16.300000 14.000000 -35.200000
16.400000 14.000000 -35.200000
16.700000 13.700000 -35.499999
16.700000 13.800000 -35.499999
16.599999 13.900000 -35.400001
16.599999 14.000000 -35.400001
16.700000 13.900000 -35.400001
16.700000 14.000000 -35.400001
16.599999 13.800000 -35.299998
16.599999 13.700000 -35.200000
16.700000 13.800000 -35.299998
16.599999 14.000000 -35.200000
16.400000 14.100000 -35.299998
16.400000 14.200000 -35.299998
16.200000 14.300000 -35.200000
16.300000 14.400000 -35.299998
16.400000 14.400000 -35.299998
16.300000 14.300000 -35.200000
16.400000 14.300000 -35.200000
16.300000 14.400000 -35.200000
16.400000 14.400000 -35.200000
16.700000 14.100000 -35.499999
16.700000 14.200000 -35.400001
16.599999 14.300000 -35.499999
16.599999 14.400000 -35.499999
16.599999 14.300000 -35.400001
16.700000 14.300000 -35.499999
16.700000 14.400000 -35.499999
16.700000 14.300000 -35.400001
16.599999 14.100000 -35.299998
16.599999 14.200000 -35.299998
16.700000 14.100000 -35.299998
16.599999 14.400000 -35.299998
17.099999 13.800000 -35.799998
17.099999 13.900000 -35.900001
17.000001 13.700000 -35.700000
17.099999 13.700000 -35.700000
16.900000 13.900000 -35.700000
17.000001 13.900000 -35.700000
17.000001 14.000000 -35.700000
16.900000 13.900000 -35.600002
17.000001 13.900000 -35.600002
